<?xml version="1.0"?>
<opencv_storage>
<depth type_id="opencv-matrix">
  <rows>31</rows>
  <cols>260</cols>
  <dt>f</dt>
  <data>
    4.17402077e+00 4.17402077e+00 4.15261555e+00 4.15261555e+00 4.15261555e+00 4.13142872e+00 4.11045694e+00 4.08969688e+00 4.02865696e+00 4.00871277e+00 3.96941185e+00 3.95004892e+00 3.95004892e+00 3.93087387e+00 3.91188407e+00 3.91188407e+00 3.89307690e+00 3.89307690e+00 3.89307690e+00 3.89307690e+00 3.89307690e+00 3.91188407e+00 3.91188407e+00 3.91188407e+00 3.91188407e+00 3.91188407e+00 3.89307690e+00 3.89307690e+00 3.89307690e+00 3.89307690e+00 3.89307690e+00 3.85599995e+00 3.74888897e+00 3.64756751e+00 3.64756751e+00 3.64756751e+00 3.66407251e+00 3.69753432e+00 3.69753432e+00 3.69753432e+00 3.68072724e+00 3.68072724e+00 3.68072724e+00 3.68072724e+00 3.68072724e+00 3.71449542e+00 3.71449542e+00 3.71449542e+00 3.69753432e+00 3.69753432e+00 3.69753432e+00 3.71449542e+00 3.76632571e+00 3.76632571e+00 3.76632571e+00 3.71449542e+00 3.71449542e+00 3.71449542e+00 3.95004892e+00 4.04879999e+00 4.08969688e+00 4.11045694e+00 4.13142872e+00 4.13142872e+00 4.13142872e+00 4.13142872e+00 4.13142872e+00 4.13142872e+00 4.11045694e+00 4.08969688e+00 4.08969688e+00 4.04879999e+00 4.00871277e+00 3.98896551e+00 3.96941185e+00 3.95004892e+00 3.93087387e+00 3.93087387e+00 3.93087387e+00 3.93087387e+00 3.93087387e+00 3.93087387e+00 3.95004892e+00 3.96941185e+00 3.96941185e+00 3.98896551e+00 3.98896551e+00 3.98896551e+00 3.96941185e+00 3.96941185e+00 3.98896551e+00 4.04879999e+00 4.06914568e+00 4.06914568e+00 4.06914568e+00 4.06914568e+00 4.06914568e+00 4.11045694e+00 4.11045694e+00 4.13142872e+00 4.11045694e+00 4.06914568e+00 4.06914568e+00 4.06914568e+00 4.06914568e+00 4.08969688e+00 4.15261555e+00 4.15261555e+00 4.15261555e+00 4.17402077e+00 4.17402077e+00 4.17402077e+00 4.17402077e+00 4.19564772e+00 4.19564772e+00 4.19564772e+00 4.21750021e+00 4.21750021e+00 4.21750021e+00 4.21750021e+00 4.21750021e+00 4.21750021e+00 4.21750021e+00 4.21750021e+00 4.21750021e+00 4.19564772e+00 4.19564772e+00 4.17402077e+00 4.17402077e+00 4.17402077e+00 4.15261555e+00 4.13142872e+00 4.11045694e+00 4.11045694e+00 4.06914568e+00 4.00871277e+00 3.98896551e+00 3.96941185e+00 3.96941185e+00 3.96941185e+00 3.95004892e+00 3.95004892e+00 3.96941185e+00 3.98896551e+00 4.00871277e+00 -1. -1. -1. -1. -1. -1. -1. -1. -1. -1. -1. -1. -1. -1. -1. -1. -1. -1. -1. -1. -1. -1. -1. -1. -1. -1. -1. -1. -1. -1. -1. -1. 1.10171425e+00 1.09872460e+00 1.09575105e+00 1.09427023e+00 1.08985198e+00 1.08692622e+00 -1. -1. -1. -1. -1. -1. -1. -1. -1. -1. -1. -1. -1. -1. -1. -1. -1. -1. -1. -1. -1. -1. -1. -1. -1. -1. -1. -1. -1. -1. -1. -1. -1. -1. -1. -1. -1. -1. -1. -1. 1.01219997e+01 1.01219997e+01 1.01219997e+01 1.02501268e+01 1.02501268e+01 1.01219997e+01 9.99703693e+00 9.87512207e+00 9.87512207e+00 9.87512207e+00 9.87512207e+00 9.87512207e+00 9.87512207e+00 9.99703693e+00 9.99703693e+00 9.87512207e+00 9.75614452e+00 9.87512207e+00 -1. -1. -1. -1. -1. -1. -1. -1. -1. 3.61500001e+00 3.59893346e+00 3.61500001e+00 3.61500001e+00 -1. -1. -1. -1. -1. -1.
    4.19564772e+00 4.19564772e+00 4.17402077e+00 4.17402077e+00 4.17402077e+00 4.17402077e+00 4.15261555e+00 4.11045694e+00 4.08969688e+00 4.02865696e+00 3.98896551e+00 3.96941185e+00 3.95004892e+00 3.91188407e+00 3.91188407e+00 3.89307690e+00 3.89307690e+00 3.89307690e+00 3.89307690e+00 3.89307690e+00 3.89307690e+00 3.89307690e+00 3.89307690e+00 3.89307690e+00 3.89307690e+00 3.89307690e+00 3.89307690e+00 3.87444973e+00 3.85599995e+00 3.85599995e+00 3.83772516e+00 3.83772516e+00 3.71449542e+00 3.64756751e+00 3.63121080e+00 3.63121080e+00 3.64756751e+00 3.68072724e+00 3.69753432e+00 3.69753432e+00 3.68072724e+00 3.68072724e+00 3.68072724e+00 3.68072724e+00 3.69753432e+00 3.71449542e+00 3.71449542e+00 3.71449542e+00 3.69753432e+00 3.68072724e+00 3.68072724e+00 3.69753432e+00 3.73161292e+00 3.73161292e+00 3.73161292e+00 3.71449542e+00 3.71449542e+00 3.71449542e+00 3.98896551e+00 4.06914568e+00 4.11045694e+00 4.13142872e+00 4.15261555e+00 4.15261555e+00 4.15261555e+00 4.15261555e+00 4.15261555e+00 4.15261555e+00 4.13142872e+00 4.13142872e+00 4.11045694e+00 4.08969688e+00 4.04879999e+00 4.00871277e+00 3.96941185e+00 3.95004892e+00 3.95004892e+00 3.93087387e+00 3.93087387e+00 3.93087387e+00 3.95004892e+00 3.95004892e+00 3.96941185e+00 3.96941185e+00 3.98896551e+00 4.00871277e+00 3.98896551e+00 3.93087387e+00 3.93087387e+00 3.96941185e+00 3.98896551e+00 4.02865696e+00 4.04879999e+00 4.06914568e+00 4.06914568e+00 4.06914568e+00 4.06914568e+00 4.08969688e+00 4.11045694e+00 4.11045694e+00 4.11045694e+00 4.08969688e+00 4.06914568e+00 4.06914568e+00 4.06914568e+00 4.06914568e+00 4.15261555e+00 4.15261555e+00 4.15261555e+00 4.17402077e+00 4.17402077e+00 4.17402077e+00 4.19564772e+00 4.19564772e+00 4.19564772e+00 4.19564772e+00 4.21750021e+00 4.21750021e+00 4.21750021e+00 4.21750021e+00 4.21750021e+00 4.21750021e+00 4.21750021e+00 4.21750021e+00 4.21750021e+00 4.21750021e+00 4.19564772e+00 4.19564772e+00 4.17402077e+00 4.17402077e+00 4.17402077e+00 4.15261555e+00 4.13142872e+00 4.11045694e+00 4.11045694e+00 4.06914568e+00 4.00871277e+00 3.98896551e+00 3.96941185e+00 3.95004892e+00 3.95004892e+00 3.95004892e+00 3.95004892e+00 3.96941185e+00 4.02865696e+00 -1. -1. -1. -1. -1. -1. -1. -1. -1. -1. -1. -1. -1. -1. -1. -1. -1. -1. -1. -1. -1. -1. -1. -1. -1. -1. -1. -1. -1. -1. -1. -1. 1.10321522e+00 1.10021746e+00 1.09723580e+00 1.09279358e+00 1.08985198e+00 1.08985198e+00 -1. -1. -1. -1. -1. -1. -1. -1. -1. -1. -1. -1. -1. -1. -1. -1. -1. -1. -1. -1. -1. -1. -1. -1. -1. -1. -1. -1. -1. -1. -1. -1. -1. -1. -1. -1. -1. -1. -1. -1. 1.01219997e+01 1.01219997e+01 1.01219997e+01 1.02501268e+01 1.02501268e+01 1.01219997e+01 9.99703693e+00 9.87512207e+00 9.87512207e+00 9.87512207e+00 9.87512207e+00 9.87512207e+00 9.87512207e+00 9.99703693e+00 9.99703693e+00 9.87512207e+00 9.75614452e+00 9.87512207e+00 -1. -1. -1. -1. -1. -1. -1. -1. 3.59893346e+00 3.59893346e+00 3.59893346e+00 3.59893346e+00 3.61500001e+00 1.02501268e+01 -1. -1. -1. -1. -1.
    4.19564772e+00 4.19564772e+00 4.19564772e+00 4.19564772e+00 4.19564772e+00 4.19564772e+00 4.17402077e+00 4.15261555e+00 4.13142872e+00 4.08969688e+00 3.98896551e+00 3.96941185e+00 3.95004892e+00 3.91188407e+00 3.89307690e+00 3.89307690e+00 3.89307690e+00 3.89307690e+00 3.89307690e+00 3.89307690e+00 3.89307690e+00 3.89307690e+00 3.89307690e+00 3.89307690e+00 3.89307690e+00 3.89307690e+00 3.87444973e+00 3.85599995e+00 3.81962276e+00 3.81962276e+00 3.80169010e+00 3.78392529e+00 3.69753432e+00 3.63121080e+00 3.61500001e+00 3.61500001e+00 3.63121080e+00 3.66407251e+00 3.66407251e+00 3.68072724e+00 3.68072724e+00 3.68072724e+00 3.68072724e+00 3.69753432e+00 3.69753432e+00 3.71449542e+00 3.69753432e+00 3.69753432e+00 3.68072724e+00 3.68072724e+00 3.68072724e+00 3.68072724e+00 3.69753432e+00 3.71449542e+00 3.71449542e+00 3.69753432e+00 3.69753432e+00 3.69753432e+00 4.04879999e+00 4.11045694e+00 4.13142872e+00 4.15261555e+00 4.17402077e+00 4.17402077e+00 4.17402077e+00 4.17402077e+00 4.17402077e+00 4.17402077e+00 4.17402077e+00 4.15261555e+00 4.15261555e+00 4.13142872e+00 4.11045694e+00 4.04879999e+00 4.00871277e+00 3.96941185e+00 3.95004892e+00 3.93087387e+00 3.93087387e+00 3.95004892e+00 3.95004892e+00 3.96941185e+00 3.96941185e+00 4.00871277e+00 4.00871277e+00 3.98896551e+00 3.96941185e+00 3.95004892e+00 3.96941185e+00 3.96941185e+00 4.02865696e+00 4.02865696e+00 4.04879999e+00 4.06914568e+00 4.04879999e+00 4.04879999e+00 4.04879999e+00 4.06914568e+00 4.11045694e+00 4.11045694e+00 4.11045694e+00 4.11045694e+00 4.08969688e+00 4.06914568e+00 4.11045694e+00 4.11045694e+00 4.15261555e+00 4.15261555e+00 4.15261555e+00 4.17402077e+00 4.17402077e+00 4.17402077e+00 4.19564772e+00 4.19564772e+00 4.19564772e+00 4.19564772e+00 4.21750021e+00 4.21750021e+00 4.21750021e+00 4.21750021e+00 4.21750021e+00 4.21750021e+00 4.21750021e+00 4.21750021e+00 4.21750021e+00 4.21750021e+00 4.19564772e+00 4.19564772e+00 4.19564772e+00 4.17402077e+00 4.17402077e+00 4.17402077e+00 4.15261555e+00 4.13142872e+00 4.13142872e+00 4.11045694e+00 4.06914568e+00 4.00871277e+00 3.98896551e+00 3.96941185e+00 3.95004892e+00 3.95004892e+00 3.95004892e+00 3.95004892e+00 -1. -1. -1. -1. 3.95004892e+00 -1. -1. -1. -1. -1. -1. -1. -1. -1. -1. -1. -1. -1. -1. -1. -1. -1. -1. -1. -1. -1. -1. -1. -1. -1. -1. -1. 1.10472035e+00 1.10321522e+00 1.10021746e+00 1.09872460e+00 1.09279358e+00 1.09279358e+00 -1. -1. -1. -1. -1. -1. -1. -1. -1. -1. -1. -1. -1. -1. -1. -1. -1. -1. -1. -1. -1. -1. -1. -1. -1. -1. -1. -1. -1. -1. -1. -1. -1. -1. -1. -1. -1. -1. -1. -1. -1. 1.01219997e+01 1.01219997e+01 1.02501268e+01 1.02501268e+01 1.02501268e+01 1.01219997e+01 1.01219997e+01 9.99703693e+00 9.99703693e+00 9.99703693e+00 9.99703693e+00 9.99703693e+00 9.87512207e+00 1.01219997e+01 1.01219997e+01 1.01219997e+01 -1. -1. 9.64000034e+00 -1. -1. -1. 3.55157900e+00 3.56722474e+00 3.58300900e+00 3.58300900e+00 3.58300900e+00 3.59893346e+00 3.59893346e+00 3.59893346e+00 3.61500001e+00 1.02501268e+01 1.03815384e+01 1.07967997e+01 -1. -1. -1.
    4.21750021e+00 4.21750021e+00 4.19564772e+00 4.19564772e+00 4.19564772e+00 4.19564772e+00 4.19564772e+00 4.17402077e+00 4.17402077e+00 4.13142872e+00 4.02865696e+00 3.98896551e+00 3.95004892e+00 3.91188407e+00 3.89307690e+00 3.89307690e+00 3.89307690e+00 3.87444973e+00 3.87444973e+00 3.87444973e+00 3.89307690e+00 3.89307690e+00 3.89307690e+00 3.89307690e+00 3.89307690e+00 3.87444973e+00 3.85599995e+00 3.81962276e+00 3.71449542e+00 3.74888897e+00 3.74888897e+00 3.74888897e+00 3.66407251e+00 3.63121080e+00 3.61500001e+00 3.61500001e+00 3.61500001e+00 3.63121080e+00 3.64756751e+00 3.66407251e+00 3.66407251e+00 3.68072724e+00 3.68072724e+00 3.69753432e+00 3.69753432e+00 3.69753432e+00 3.69753432e+00 3.68072724e+00 3.68072724e+00 3.66407251e+00 3.66407251e+00 3.66407251e+00 3.68072724e+00 3.68072724e+00 3.68072724e+00 3.68072724e+00 3.68072724e+00 3.69753432e+00 4.08969688e+00 4.13142872e+00 4.15261555e+00 4.17402077e+00 4.17402077e+00 4.19564772e+00 4.19564772e+00 4.19564772e+00 4.19564772e+00 4.19564772e+00 4.17402077e+00 4.17402077e+00 4.17402077e+00 4.17402077e+00 4.13142872e+00 4.11045694e+00 4.04879999e+00 4.00871277e+00 3.98896551e+00 3.96941185e+00 3.96941185e+00 3.96941185e+00 3.96941185e+00 3.98896551e+00 4.02865696e+00 4.02865696e+00 4.00871277e+00 3.98896551e+00 3.98896551e+00 3.96941185e+00 3.96941185e+00 3.98896551e+00 4.04879999e+00 4.04879999e+00 4.06914568e+00 4.06914568e+00 4.06914568e+00 4.04879999e+00 4.04879999e+00 4.08969688e+00 4.11045694e+00 4.13142872e+00 4.13142872e+00 4.13142872e+00 4.11045694e+00 4.11045694e+00 4.11045694e+00 4.13142872e+00 4.15261555e+00 4.15261555e+00 4.19564772e+00 4.19564772e+00 4.19564772e+00 4.19564772e+00 4.19564772e+00 4.19564772e+00 4.19564772e+00 4.21750021e+00 4.21750021e+00 4.21750021e+00 4.21750021e+00 4.21750021e+00 4.21750021e+00 4.21750021e+00 4.21750021e+00 4.21750021e+00 4.21750021e+00 4.21750021e+00 4.21750021e+00 4.19564772e+00 4.19564772e+00 4.19564772e+00 4.19564772e+00 4.17402077e+00 4.17402077e+00 4.17402077e+00 4.15261555e+00 4.13142872e+00 4.11045694e+00 4.08969688e+00 4.02865696e+00 3.98896551e+00 3.95004892e+00 3.95004892e+00 3.95004892e+00 3.95004892e+00 -1. -1. -1. 3.95004892e+00 3.85599995e+00 3.85599995e+00 -1. -1. -1. -1. -1. -1. -1. -1. -1. -1. -1. -1. -1. -1. -1. -1. -1. -1. -1. -1. -1. -1. -1. -1. -1. -1. 1.10321522e+00 1.10321522e+00 1.10021746e+00 1.09872460e+00 1.09279358e+00 1.09279358e+00 -1. -1. -1. -1. -1. -1. -1. -1. -1. -1. -1. -1. -1. -1. -1. -1. -1. -1. -1. 8.03333342e-01 8.03333342e-01 -1. -1. -1. -1. -1. -1. -1. -1. -1. -1. -1. -1. -1. -1. -1. -1. -1. -1. -1. -1. 1.03815384e+01 1.02501268e+01 1.02501268e+01 1.03815384e+01 1.03815384e+01 1.01219997e+01 1.01219997e+01 1.01219997e+01 1.01219997e+01 -1. -1. 9.99703693e+00 9.75614452e+00 3.38811731e+00 9.75614452e+00 -1. -1. -1. 3.43118644e+00 3.43118644e+00 3.52069569e+00 3.52069569e+00 3.53606987e+00 3.55157900e+00 3.56722474e+00 3.56722474e+00 3.56722474e+00 3.58300900e+00 3.59893346e+00 3.59893346e+00 1.02501268e+01 1.02501268e+01 1.02501268e+01 -1. -1. -1. -1.
    4.21750021e+00 4.21750021e+00 4.21750021e+00 4.21750021e+00 4.21750021e+00 4.21750021e+00 4.19564772e+00 4.19564772e+00 4.19564772e+00 4.17402077e+00 4.06914568e+00 4.02865696e+00 3.96941185e+00 3.93087387e+00 3.89307690e+00 3.89307690e+00 3.87444973e+00 3.87444973e+00 3.87444973e+00 3.87444973e+00 3.87444973e+00 3.89307690e+00 3.89307690e+00 3.89307690e+00 3.89307690e+00 3.87444973e+00 3.81962276e+00 3.71449542e+00 3.68072724e+00 3.71449542e+00 3.74888897e+00 3.74888897e+00 3.66407251e+00 3.64756751e+00 3.61500001e+00 3.61500001e+00 3.61500001e+00 3.63121080e+00 3.64756751e+00 3.66407251e+00 3.66407251e+00 3.69753432e+00 3.69753432e+00 3.69753432e+00 3.69753432e+00 3.71449542e+00 3.69753432e+00 3.69753432e+00 3.68072724e+00 3.66407251e+00 3.66407251e+00 3.66407251e+00 3.68072724e+00 3.68072724e+00 3.68072724e+00 3.68072724e+00 3.69753432e+00 3.69753432e+00 4.11045694e+00 4.15261555e+00 4.17402077e+00 4.19564772e+00 4.19564772e+00 4.19564772e+00 4.19564772e+00 4.19564772e+00 4.19564772e+00 4.19564772e+00 4.19564772e+00 4.19564772e+00 4.19564772e+00 4.17402077e+00 4.17402077e+00 4.13142872e+00 4.08969688e+00 4.04879999e+00 4.00871277e+00 3.98896551e+00 3.98896551e+00 3.98896551e+00 3.98896551e+00 4.02865696e+00 4.04879999e+00 4.04879999e+00 3.98896551e+00 3.98896551e+00 3.98896551e+00 3.98896551e+00 3.98896551e+00 4.00871277e+00 4.04879999e+00 4.06914568e+00 4.06914568e+00 4.06914568e+00 4.06914568e+00 4.04879999e+00 4.04879999e+00 4.08969688e+00 4.11045694e+00 4.13142872e+00 4.13142872e+00 4.13142872e+00 4.11045694e+00 4.11045694e+00 4.11045694e+00 4.13142872e+00 4.19564772e+00 4.19564772e+00 4.19564772e+00 4.19564772e+00 4.19564772e+00 4.19564772e+00 4.21750021e+00 4.19564772e+00 4.21750021e+00 4.21750021e+00 4.21750021e+00 4.21750021e+00 4.21750021e+00 4.21750021e+00 4.21750021e+00 4.21750021e+00 4.21750021e+00 4.21750021e+00 4.21750021e+00 4.21750021e+00 4.21750021e+00 4.21750021e+00 4.21750021e+00 4.21750021e+00 4.21750021e+00 4.19564772e+00 4.19564772e+00 4.19564772e+00 4.17402077e+00 4.15261555e+00 4.13142872e+00 4.11045694e+00 4.11045694e+00 4.04879999e+00 3.98896551e+00 3.95004892e+00 3.95004892e+00 3.98896551e+00 -1. -1. 4.00871277e+00 3.95004892e+00 3.85599995e+00 3.85599995e+00 -1. -1. -1. -1. -1. -1. -1. -1. -1. -1. -1. -1. -1. -1. -1. -1. -1. -1. -1. -1. -1. -1. -1. -1. -1. -1. 1.10321522e+00 1.10321522e+00 1.10021746e+00 1.09872460e+00 1.09872460e+00 -1. -1. -1. -1. -1. -1. -1. -1. -1. -1. -1. -1. -1. -1. -1. -1. -1. -1. 8.03333342e-01 8.03333342e-01 8.03333342e-01 8.03333342e-01 8.03333342e-01 -1. -1. -1. -1. -1. 2.32689667e+00 -1. -1. -1. -1. -1. -1. -1. -1. -1. -1. -1. -1. -1. 1.02501268e+01 1.02501268e+01 -1. -1. -1. 1.02501268e+01 1.01219997e+01 1.01219997e+01 1.01219997e+01 -1. -1. 9.99703693e+00 3.37400007e+00 3.37400007e+00 3.38811731e+00 -1. -1. -1. 3.43118644e+00 3.43118644e+00 3.44578719e+00 3.50545454e+00 3.52069569e+00 3.53606987e+00 3.55157900e+00 3.55157900e+00 3.56722474e+00 3.58300900e+00 3.59893346e+00 1.02501268e+01 1.02501268e+01 1.01219997e+01 1.01219997e+01 -1. -1. -1. -1.
    4.21750021e+00 4.21750021e+00 4.21750021e+00 4.21750021e+00 4.21750021e+00 4.21750021e+00 4.21750021e+00 4.19564772e+00 4.19564772e+00 4.19564772e+00 4.06914568e+00 4.02865696e+00 3.98896551e+00 3.93087387e+00 3.89307690e+00 3.89307690e+00 3.87444973e+00 3.87444973e+00 3.87444973e+00 3.87444973e+00 3.89307690e+00 3.89307690e+00 3.89307690e+00 3.89307690e+00 3.89307690e+00 3.87444973e+00 3.81962276e+00 3.74888897e+00 3.69753432e+00 3.73161292e+00 3.76632571e+00 3.76632571e+00 3.69753432e+00 3.66407251e+00 3.64756751e+00 3.63121080e+00 3.63121080e+00 3.64756751e+00 3.66407251e+00 3.66407251e+00 3.69753432e+00 3.69753432e+00 3.71449542e+00 3.71449542e+00 3.71449542e+00 3.73161292e+00 3.71449542e+00 3.69753432e+00 3.69753432e+00 3.68072724e+00 3.66407251e+00 3.68072724e+00 3.69753432e+00 3.69753432e+00 3.69753432e+00 3.69753432e+00 3.69753432e+00 4.08969688e+00 4.15261555e+00 4.17402077e+00 4.19564772e+00 4.19564772e+00 4.21750021e+00 4.21750021e+00 4.21750021e+00 4.21750021e+00 4.21750021e+00 4.21750021e+00 4.21750021e+00 4.19564772e+00 4.19564772e+00 4.19564772e+00 4.17402077e+00 4.15261555e+00 4.11045694e+00 4.08969688e+00 4.04879999e+00 4.00871277e+00 3.98896551e+00 3.98896551e+00 4.06914568e+00 4.04879999e+00 4.04879999e+00 3.98896551e+00 3.98896551e+00 3.98896551e+00 3.98896551e+00 3.98896551e+00 3.98896551e+00 4.00871277e+00 4.00871277e+00 4.02865696e+00 4.06914568e+00 4.06914568e+00 4.06914568e+00 4.02865696e+00 4.02865696e+00 4.06914568e+00 4.11045694e+00 4.11045694e+00 4.11045694e+00 4.11045694e+00 4.11045694e+00 4.11045694e+00 4.11045694e+00 4.13142872e+00 4.19564772e+00 4.19564772e+00 4.19564772e+00 4.19564772e+00 4.21750021e+00 4.21750021e+00 4.21750021e+00 4.19564772e+00 4.21750021e+00 4.21750021e+00 4.21750021e+00 4.21750021e+00 4.21750021e+00 4.21750021e+00 4.21750021e+00 4.21750021e+00 4.21750021e+00 4.21750021e+00 4.21750021e+00 4.21750021e+00 4.21750021e+00 4.21750021e+00 4.21750021e+00 4.21750021e+00 4.21750021e+00 4.21750021e+00 4.21750021e+00 4.21750021e+00 4.19564772e+00 4.17402077e+00 4.15261555e+00 4.13142872e+00 4.11045694e+00 4.11045694e+00 4.06914568e+00 3.98896551e+00 3.98896551e+00 4.00871277e+00 4.00871277e+00 4.00871277e+00 4.00871277e+00 3.98896551e+00 3.95004892e+00 -1. -1. -1. -1. -1. -1. -1. -1. -1. -1. -1. -1. -1. -1. -1. -1. -1. -1. -1. -1. -1. -1. -1. -1. -1. -1. -1. 1.10321522e+00 1.10321522e+00 1.10321522e+00 1.10021746e+00 -1. -1. -1. -1. -1. -1. -1. -1. -1. -1. -1. -1. -1. -1. -1. -1. -1. -1. 8.03333342e-01 8.03333342e-01 8.03333342e-01 8.03333342e-01 8.03333342e-01 8.03333342e-01 8.03333342e-01 8.03333342e-01 2.36081624e+00 2.36081624e+00 2.35395360e+00 2.32689667e+00 2.31360006e+00 -1. -1. -1. -1. -1. -1. -1. -1. -1. -1. -1. -1. -1. -1. -1. -1. 1.05163641e+01 1.01219997e+01 1.01219997e+01 3.40235305e+00 3.46051288e+00 3.46051288e+00 3.46051288e+00 3.38811731e+00 3.37400007e+00 3.37400007e+00 3.38811731e+00 -1. -1. 3.38811731e+00 3.38811731e+00 3.41670895e+00 3.44578719e+00 3.46051288e+00 3.50545454e+00 3.50545454e+00 3.53606987e+00 3.55157900e+00 3.55157900e+00 -1. -1. -1. 1.02501268e+01 1.01219997e+01 1.01219997e+01 -1. -1. -1. -1.
    4.21750021e+00 4.21750021e+00 4.21750021e+00 4.21750021e+00 4.21750021e+00 4.21750021e+00 4.21750021e+00 4.21750021e+00 4.19564772e+00 4.19564772e+00 4.08969688e+00 4.04879999e+00 3.98896551e+00 3.98896551e+00 3.93087387e+00 3.89307690e+00 3.89307690e+00 3.89307690e+00 3.89307690e+00 3.89307690e+00 3.89307690e+00 3.89307690e+00 3.89307690e+00 3.89307690e+00 3.89307690e+00 3.89307690e+00 3.85599995e+00 3.80169010e+00 3.74888897e+00 3.80169010e+00 3.80169010e+00 3.80169010e+00 3.76632571e+00 3.69753432e+00 3.69753432e+00 3.69753432e+00 3.69753432e+00 3.69753432e+00 3.71449542e+00 3.74888897e+00 3.76632571e+00 3.76632571e+00 3.76632571e+00 3.76632571e+00 3.76632571e+00 3.80169010e+00 3.76632571e+00 3.76632571e+00 3.73161292e+00 3.71449542e+00 3.71449542e+00 3.71449542e+00 3.73161292e+00 3.73161292e+00 3.78392529e+00 3.81962276e+00 3.91188407e+00 4.11045694e+00 4.15261555e+00 4.19564772e+00 4.19564772e+00 4.21750021e+00 4.21750021e+00 4.21750021e+00 4.21750021e+00 4.21750021e+00 4.21750021e+00 4.21750021e+00 4.21750021e+00 4.21750021e+00 4.21750021e+00 4.21750021e+00 4.19564772e+00 4.17402077e+00 4.13142872e+00 4.11045694e+00 4.11045694e+00 4.08969688e+00 4.06914568e+00 4.06914568e+00 4.06914568e+00 4.06914568e+00 4.04879999e+00 4.00871277e+00 3.98896551e+00 3.98896551e+00 3.98896551e+00 3.98896551e+00 3.98896551e+00 4.00871277e+00 4.02865696e+00 4.02865696e+00 4.06914568e+00 4.06914568e+00 4.06914568e+00 4.00871277e+00 4.00871277e+00 4.06914568e+00 4.11045694e+00 4.13142872e+00 4.11045694e+00 4.11045694e+00 4.11045694e+00 4.11045694e+00 4.11045694e+00 4.15261555e+00 4.19564772e+00 4.19564772e+00 4.19564772e+00 4.21750021e+00 4.21750021e+00 4.21750021e+00 4.21750021e+00 4.21750021e+00 4.21750021e+00 4.21750021e+00 4.21750021e+00 4.21750021e+00 4.21750021e+00 4.21750021e+00 4.21750021e+00 4.21750021e+00 4.21750021e+00 4.21750021e+00 4.21750021e+00 4.21750021e+00 4.21750021e+00 4.21750021e+00 4.21750021e+00 4.21750021e+00 4.21750021e+00 4.21750021e+00 4.21750021e+00 4.21750021e+00 4.21750021e+00 4.19564772e+00 4.17402077e+00 4.15261555e+00 4.13142872e+00 4.11045694e+00 4.11045694e+00 4.06914568e+00 4.00871277e+00 4.04879999e+00 4.00871277e+00 4.00871277e+00 3.98896551e+00 3.98896551e+00 -1. -1. -1. -1. -1. -1. -1. -1. -1. -1. -1. -1. -1. -1. -1. -1. -1. -1. -1. -1. -1. -1. -1. -1. -1. -1. -1. -1. -1. 1.10321522e+00 -1. -1. -1. -1. -1. -1. -1. -1. -1. -1. -1. -1. -1. -1. -1. -1. -1. -1. -1. 8.09760034e-01 8.03333342e-01 8.03333342e-01 8.03333342e-01 8.03333342e-01 8.03333342e-01 8.03333342e-01 8.03333342e-01 8.03333342e-01 8.03333342e-01 2.35395360e+00 2.36081624e+00 2.34034681e+00 2.34034681e+00 -1. -1. -1. -1. -1. -1. -1. -1. -1. -1. -1. -1. -1. -1. 8.16290319e-01 8.13829184e-01 8.12196612e-01 8.03333342e-01 8.03333342e-01 8.03333342e-01 3.41670895e+00 3.43118644e+00 3.43118644e+00 3.40235305e+00 3.38811731e+00 3.38811731e+00 3.38811731e+00 3.40235305e+00 3.40235305e+00 3.38811731e+00 3.38811731e+00 3.41670895e+00 3.43118644e+00 3.43118644e+00 3.46051288e+00 3.47536492e+00 3.52069569e+00 3.55157900e+00 -1. -1. -1. -1. -1. -1. -1. -1. -1. -1. -1.
    4.21750021e+00 4.21750021e+00 4.21750021e+00 4.21750021e+00 4.21750021e+00 4.21750021e+00 4.21750021e+00 4.21750021e+00 4.21750021e+00 4.19564772e+00 4.13142872e+00 4.08969688e+00 4.02865696e+00 3.98896551e+00 3.96941185e+00 3.93087387e+00 3.91188407e+00 3.89307690e+00 3.89307690e+00 3.89307690e+00 3.89307690e+00 3.89307690e+00 3.89307690e+00 3.89307690e+00 3.89307690e+00 3.89307690e+00 3.85599995e+00 3.80169010e+00 3.78392529e+00 3.80169010e+00 3.81962276e+00 3.81962276e+00 3.76632571e+00 3.71449542e+00 3.69753432e+00 3.69753432e+00 3.69753432e+00 3.76632571e+00 3.76632571e+00 3.78392529e+00 3.76632571e+00 3.76632571e+00 3.76632571e+00 3.78392529e+00 3.78392529e+00 3.80169010e+00 3.80169010e+00 3.80169010e+00 3.76632571e+00 3.74888897e+00 3.73161292e+00 3.73161292e+00 3.78392529e+00 3.80169010e+00 3.87444973e+00 3.89307690e+00 4.04879999e+00 4.13142872e+00 4.17402077e+00 4.19564772e+00 4.21750021e+00 4.21750021e+00 4.21750021e+00 4.21750021e+00 4.21750021e+00 4.21750021e+00 4.21750021e+00 4.21750021e+00 4.21750021e+00 4.21750021e+00 4.21750021e+00 4.21750021e+00 4.21750021e+00 4.19564772e+00 4.15261555e+00 4.13142872e+00 4.13142872e+00 4.13142872e+00 4.13142872e+00 4.08969688e+00 4.08969688e+00 4.06914568e+00 4.04879999e+00 4.00871277e+00 4.00871277e+00 4.00871277e+00 4.00871277e+00 4.00871277e+00 4.00871277e+00 4.00871277e+00 4.04879999e+00 4.04879999e+00 4.06914568e+00 4.06914568e+00 4.06914568e+00 4.06914568e+00 4.06914568e+00 4.11045694e+00 4.11045694e+00 4.13142872e+00 4.13142872e+00 4.11045694e+00 4.11045694e+00 4.11045694e+00 4.13142872e+00 4.17402077e+00 4.21750021e+00 4.19564772e+00 4.21750021e+00 4.21750021e+00 4.21750021e+00 4.21750021e+00 4.21750021e+00 4.21750021e+00 4.21750021e+00 4.21750021e+00 4.21750021e+00 4.21750021e+00 4.21750021e+00 4.21750021e+00 4.21750021e+00 4.21750021e+00 4.21750021e+00 4.21750021e+00 4.21750021e+00 4.21750021e+00 4.21750021e+00 4.21750021e+00 4.21750021e+00 4.21750021e+00 4.21750021e+00 4.21750021e+00 4.21750021e+00 4.21750021e+00 4.21750021e+00 4.19564772e+00 4.17402077e+00 4.15261555e+00 4.13142872e+00 4.11045694e+00 4.11045694e+00 4.11045694e+00 4.08969688e+00 4.06914568e+00 4.04879999e+00 4.00871277e+00 4.00871277e+00 -1. -1. -1. -1. -1. -1. -1. -1. -1. -1. -1. -1. -1. -1. -1. -1. -1. -1. -1. -1. -1. -1. -1. -1. -1. -1. -1. -1. -1. -1. -1. -1. -1. -1. -1. -1. -1. -1. -1. -1. -1. -1. -1. -1. -1. -1. -1. -1. -1. -1. 8.03333342e-01 8.03333342e-01 8.03333342e-01 8.03333342e-01 8.03333342e-01 8.03333342e-01 8.03333342e-01 8.03333342e-01 8.03333342e-01 8.03333342e-01 8.03333342e-01 2.35395360e+00 2.34034681e+00 2.34034681e+00 -1. -1. -1. -1. -1. -1. -1. -1. -1. -1. -1. -1. 8.16290319e-01 8.16290319e-01 8.13829184e-01 8.12196612e-01 8.09760034e-01 8.03333342e-01 8.03333342e-01 8.03333342e-01 3.41670895e+00 3.44578719e+00 3.44578719e+00 3.41670895e+00 3.40235305e+00 3.40235305e+00 3.40235305e+00 3.40235305e+00 3.40235305e+00 3.38811731e+00 3.40235305e+00 3.41670895e+00 3.43118644e+00 3.41670895e+00 3.46051288e+00 3.46051288e+00 3.50545454e+00 -1. -1. -1. -1. -1. -1. -1. -1. -1. -1. -1. -1.
    4.21750021e+00 4.21750021e+00 4.21750021e+00 4.21750021e+00 4.21750021e+00 4.21750021e+00 4.21750021e+00 4.21750021e+00 4.21750021e+00 4.21750021e+00 4.17402077e+00 4.13142872e+00 4.06914568e+00 4.02865696e+00 3.98896551e+00 3.98896551e+00 3.93087387e+00 3.91188407e+00 3.89307690e+00 3.89307690e+00 3.89307690e+00 3.89307690e+00 3.89307690e+00 3.89307690e+00 3.89307690e+00 3.89307690e+00 3.85599995e+00 3.80169010e+00 3.78392529e+00 3.80169010e+00 3.81962276e+00 3.81962276e+00 3.76632571e+00 3.71449542e+00 3.71449542e+00 3.69753432e+00 3.76632571e+00 3.78392529e+00 3.78392529e+00 3.80169010e+00 3.78392529e+00 3.76632571e+00 3.73161292e+00 3.76632571e+00 3.76632571e+00 3.80169010e+00 3.80169010e+00 3.81962276e+00 3.80169010e+00 3.80169010e+00 3.78392529e+00 3.80169010e+00 3.81962276e+00 3.87444973e+00 3.87444973e+00 3.91188407e+00 4.08969688e+00 4.15261555e+00 4.19564772e+00 4.21750021e+00 4.21750021e+00 4.21750021e+00 4.21750021e+00 4.21750021e+00 4.21750021e+00 4.21750021e+00 4.21750021e+00 4.21750021e+00 4.21750021e+00 4.21750021e+00 4.21750021e+00 4.21750021e+00 4.21750021e+00 4.19564772e+00 4.15261555e+00 4.15261555e+00 4.15261555e+00 4.15261555e+00 4.13142872e+00 4.11045694e+00 4.08969688e+00 4.06914568e+00 4.06914568e+00 4.02865696e+00 4.00871277e+00 4.00871277e+00 4.00871277e+00 4.00871277e+00 4.00871277e+00 4.02865696e+00 4.04879999e+00 4.04879999e+00 4.06914568e+00 4.06914568e+00 4.06914568e+00 4.06914568e+00 4.06914568e+00 4.11045694e+00 4.13142872e+00 4.13142872e+00 4.13142872e+00 4.11045694e+00 4.11045694e+00 4.11045694e+00 4.17402077e+00 4.19564772e+00 4.21750021e+00 4.21750021e+00 4.23958111e+00 4.23958111e+00 4.23958111e+00 4.23958111e+00 4.23958111e+00 4.23958111e+00 4.23958111e+00 4.23958111e+00 4.23958111e+00 4.23958111e+00 4.21750021e+00 4.21750021e+00 4.21750021e+00 4.21750021e+00 4.21750021e+00 4.21750021e+00 4.21750021e+00 4.21750021e+00 4.21750021e+00 4.21750021e+00 4.21750021e+00 4.21750021e+00 4.21750021e+00 4.21750021e+00 4.21750021e+00 4.21750021e+00 4.21750021e+00 4.19564772e+00 4.17402077e+00 4.13142872e+00 4.11045694e+00 4.11045694e+00 4.11045694e+00 4.11045694e+00 4.08969688e+00 4.08969688e+00 4.06914568e+00 4.06914568e+00 -1. -1. -1. -1. -1. -1. -1. -1. -1. -1. -1. -1. -1. -1. -1. -1. -1. -1. -1. -1. -1. -1. -1. -1. -1. -1. -1. -1. -1. -1. -1. -1. -1. -1. -1. -1. -1. -1. -1. -1. -1. -1. -1. -1. -1. -1. -1. -1. -1. -1. 8.03333342e-01 8.03333342e-01 8.03333342e-01 8.03333342e-01 8.03333342e-01 8.03333342e-01 8.03333342e-01 8.03333342e-01 8.03333342e-01 8.03333342e-01 8.03333342e-01 8.03333342e-01 8.03333342e-01 8.03333342e-01 2.40284872e+00 -1. -1. -1. -1. -1. -1. -1. -1. -1. -1. -1. 8.17114055e-01 8.16290319e-01 8.15468311e-01 8.13829184e-01 8.12196612e-01 8.10570598e-01 8.03333342e-01 8.03333342e-01 8.03333342e-01 3.41670895e+00 3.47536492e+00 3.46051288e+00 3.43118644e+00 3.41670895e+00 3.41670895e+00 3.41670895e+00 3.41670895e+00 3.41670895e+00 3.40235305e+00 3.40235305e+00 3.41670895e+00 3.43118644e+00 3.43118644e+00 3.46051288e+00 3.46051288e+00 -1. -1. -1. -1. -1. -1. -1. -1. -1. -1. -1. -1. -1.
    4.23958111e+00 4.23958111e+00 4.23958111e+00 4.23958111e+00 4.23958111e+00 4.23958111e+00 4.23958111e+00 4.23958111e+00 4.23958111e+00 4.21750021e+00 4.19564772e+00 4.15261555e+00 4.13142872e+00 4.06914568e+00 4.00871277e+00 4.00871277e+00 4.00871277e+00 3.95004892e+00 3.91188407e+00 3.89307690e+00 3.89307690e+00 3.89307690e+00 3.89307690e+00 3.89307690e+00 3.89307690e+00 3.89307690e+00 3.85599995e+00 3.78392529e+00 3.78392529e+00 3.80169010e+00 3.81962276e+00 3.81962276e+00 3.76632571e+00 3.71449542e+00 3.71449542e+00 3.69753432e+00 3.78392529e+00 3.80169010e+00 3.80169010e+00 3.80169010e+00 3.78392529e+00 3.74888897e+00 3.73161292e+00 3.74888897e+00 3.76632571e+00 3.78392529e+00 3.80169010e+00 3.81962276e+00 3.80169010e+00 3.80169010e+00 3.80169010e+00 3.81962276e+00 3.93087387e+00 3.91188407e+00 3.91188407e+00 4.06914568e+00 4.11045694e+00 4.17402077e+00 4.19564772e+00 4.21750021e+00 4.21750021e+00 4.21750021e+00 4.21750021e+00 4.21750021e+00 4.21750021e+00 4.21750021e+00 4.21750021e+00 4.21750021e+00 4.21750021e+00 4.21750021e+00 4.21750021e+00 4.21750021e+00 4.21750021e+00 4.19564772e+00 4.17402077e+00 4.15261555e+00 4.15261555e+00 4.15261555e+00 4.15261555e+00 4.13142872e+00 4.11045694e+00 4.08969688e+00 4.08969688e+00 4.04879999e+00 4.02865696e+00 4.00871277e+00 4.00871277e+00 4.00871277e+00 4.00871277e+00 4.02865696e+00 4.06914568e+00 4.04879999e+00 4.06914568e+00 4.06914568e+00 4.08969688e+00 4.08969688e+00 4.08969688e+00 4.11045694e+00 4.13142872e+00 4.15261555e+00 4.13142872e+00 4.13142872e+00 4.11045694e+00 4.13142872e+00 4.17402077e+00 4.21750021e+00 4.23958111e+00 4.23958111e+00 4.26189470e+00 4.28444433e+00 4.28444433e+00 4.26189470e+00 4.26189470e+00 4.26189470e+00 4.26189470e+00 4.26189470e+00 4.26189470e+00 4.23958111e+00 4.23958111e+00 4.21750021e+00 4.21750021e+00 4.21750021e+00 4.21750021e+00 4.21750021e+00 4.21750021e+00 4.21750021e+00 4.21750021e+00 4.21750021e+00 4.21750021e+00 4.21750021e+00 4.21750021e+00 4.21750021e+00 4.21750021e+00 4.21750021e+00 4.21750021e+00 4.19564772e+00 4.17402077e+00 4.13142872e+00 4.11045694e+00 4.11045694e+00 4.11045694e+00 4.08969688e+00 4.08969688e+00 4.08969688e+00 4.08969688e+00 4.08969688e+00 -1. -1. -1. -1. -1. -1. -1. -1. -1. -1. -1. -1. -1. -1. -1. -1. -1. -1. -1. -1. -1. -1. -1. -1. -1. -1. -1. -1. -1. -1. -1. -1. -1. -1. -1. -1. -1. -1. -1. -1. -1. -1. -1. -1. -1. -1. -1. -1. -1. 8.10570598e-01 8.03333342e-01 8.03333342e-01 8.03333342e-01 8.03333342e-01 8.03333342e-01 8.03333342e-01 8.03333342e-01 8.03333342e-01 8.03333342e-01 8.03333342e-01 8.03333342e-01 8.03333342e-01 8.03333342e-01 8.03333342e-01 8.03333342e-01 -1. -1. -1. -1. -1. -1. -1. -1. -1. -1. 8.20425570e-01 8.17939401e-01 8.16290319e-01 8.15468311e-01 8.14647913e-01 8.13012064e-01 8.11382771e-01 8.03333342e-01 8.03333342e-01 8.03333342e-01 3.41670895e+00 3.50545454e+00 3.47536492e+00 3.43118644e+00 3.43118644e+00 3.43118644e+00 3.43118644e+00 3.43118644e+00 3.41670895e+00 3.41670895e+00 3.41670895e+00 3.43118644e+00 3.44578719e+00 3.43118644e+00 3.46051288e+00 -1. -1. -1. -1. -1. -1. -1. -1. -1. -1. -1. -1. -1. -1.
    4.23958111e+00 4.23958111e+00 4.23958111e+00 4.23958111e+00 4.23958111e+00 4.23958111e+00 4.23958111e+00 4.23958111e+00 4.23958111e+00 4.23958111e+00 4.21750021e+00 4.17402077e+00 4.13142872e+00 4.06914568e+00 4.06914568e+00 4.02865696e+00 4.02865696e+00 4.02865696e+00 3.95004892e+00 3.91188407e+00 3.91188407e+00 3.89307690e+00 3.89307690e+00 3.89307690e+00 3.89307690e+00 3.89307690e+00 3.87444973e+00 3.81962276e+00 3.80169010e+00 3.81962276e+00 3.83772516e+00 3.83772516e+00 3.78392529e+00 3.76632571e+00 3.76632571e+00 3.81962276e+00 3.81962276e+00 3.81962276e+00 3.81962276e+00 3.80169010e+00 3.78392529e+00 3.78392529e+00 3.74888897e+00 3.74888897e+00 3.76632571e+00 3.78392529e+00 3.81962276e+00 3.85599995e+00 3.85599995e+00 3.89307690e+00 3.91188407e+00 3.95004892e+00 3.95004892e+00 3.95004892e+00 3.95004892e+00 4.06914568e+00 4.11045694e+00 4.17402077e+00 4.21750021e+00 4.21750021e+00 4.21750021e+00 4.23958111e+00 4.23958111e+00 4.23958111e+00 4.23958111e+00 4.23958111e+00 4.23958111e+00 4.21750021e+00 4.21750021e+00 4.21750021e+00 4.21750021e+00 4.21750021e+00 4.21750021e+00 4.21750021e+00 4.19564772e+00 4.17402077e+00 4.15261555e+00 4.15261555e+00 4.13142872e+00 4.13142872e+00 4.13142872e+00 4.13142872e+00 4.11045694e+00 4.06914568e+00 4.04879999e+00 4.02865696e+00 4.00871277e+00 4.00871277e+00 4.00871277e+00 4.02865696e+00 4.06914568e+00 4.06914568e+00 4.08969688e+00 4.08969688e+00 4.08969688e+00 4.08969688e+00 4.11045694e+00 4.13142872e+00 4.13142872e+00 4.17402077e+00 4.15261555e+00 4.13142872e+00 4.13142872e+00 4.13142872e+00 4.21750021e+00 4.21750021e+00 4.26189470e+00 4.26189470e+00 4.28444433e+00 4.28444433e+00 4.28444433e+00 4.28444433e+00 4.26189470e+00 4.26189470e+00 4.26189470e+00 4.26189470e+00 4.26189470e+00 4.23958111e+00 4.23958111e+00 4.21750021e+00 4.21750021e+00 4.21750021e+00 4.21750021e+00 4.21750021e+00 4.21750021e+00 4.21750021e+00 4.21750021e+00 4.21750021e+00 4.21750021e+00 4.21750021e+00 4.21750021e+00 4.21750021e+00 4.21750021e+00 4.21750021e+00 4.21750021e+00 4.19564772e+00 4.17402077e+00 4.15261555e+00 4.11045694e+00 4.11045694e+00 4.08969688e+00 4.08969688e+00 4.08969688e+00 4.11045694e+00 4.11045694e+00 -1. -1. -1. -1. -1. -1. -1. -1. -1. -1. -1. -1. -1. -1. -1. -1. -1. -1. -1. -1. -1. -1. -1. -1. -1. -1. -1. -1. -1. -1. -1. -1. -1. -1. -1. -1. -1. -1. -1. -1. -1. -1. -1. -1. -1. -1. -1. -1. -1. -1. 8.10570598e-01 8.03333342e-01 8.03333342e-01 8.03333342e-01 8.03333342e-01 8.03333342e-01 8.03333342e-01 8.03333342e-01 8.03333342e-01 8.03333342e-01 8.03333342e-01 8.03333342e-01 8.03333342e-01 8.03333342e-01 8.03333342e-01 8.03333342e-01 -1. -1. -1. -1. -1. -1. -1. -1. -1. -1. 8.23764026e-01 8.20425570e-01 8.17939401e-01 8.16290319e-01 8.15468311e-01 8.14647913e-01 8.13012064e-01 8.09760034e-01 8.03333342e-01 8.09760034e-01 8.13829184e-01 3.53606987e+00 3.50545454e+00 3.44578719e+00 3.43118644e+00 3.43118644e+00 3.46051288e+00 3.46051288e+00 3.44578719e+00 3.43118644e+00 3.43118644e+00 3.43118644e+00 3.46051288e+00 3.46051288e+00 -1. -1. -1. -1. -1. -1. -1. -1. -1. -1. -1. -1. -1. -1. -1.
    4.26189470e+00 4.26189470e+00 4.26189470e+00 4.23958111e+00 4.23958111e+00 4.23958111e+00 4.23958111e+00 4.23958111e+00 4.23958111e+00 4.23958111e+00 4.21750021e+00 4.19564772e+00 4.15261555e+00 4.11045694e+00 4.06914568e+00 4.06914568e+00 4.06914568e+00 4.06914568e+00 4.06914568e+00 3.96941185e+00 3.93087387e+00 3.91188407e+00 3.91188407e+00 3.91188407e+00 3.91188407e+00 3.91188407e+00 3.89307690e+00 3.85599995e+00 3.81962276e+00 3.85599995e+00 3.83772516e+00 3.83772516e+00 3.78392529e+00 3.78392529e+00 3.81962276e+00 3.81962276e+00 3.81962276e+00 3.81962276e+00 3.81962276e+00 3.80169010e+00 3.80169010e+00 3.78392529e+00 3.76632571e+00 3.76632571e+00 3.76632571e+00 3.78392529e+00 3.85599995e+00 3.87444973e+00 3.89307690e+00 3.95004892e+00 3.96941185e+00 3.96941185e+00 3.96941185e+00 3.96941185e+00 4.04879999e+00 4.06914568e+00 4.13142872e+00 4.19564772e+00 4.21750021e+00 4.21750021e+00 4.23958111e+00 4.23958111e+00 4.23958111e+00 4.23958111e+00 4.23958111e+00 4.23958111e+00 4.23958111e+00 4.23958111e+00 4.23958111e+00 4.23958111e+00 4.23958111e+00 4.21750021e+00 4.21750021e+00 4.21750021e+00 4.19564772e+00 4.17402077e+00 4.15261555e+00 4.13142872e+00 4.13142872e+00 4.13142872e+00 4.13142872e+00 4.13142872e+00 4.13142872e+00 4.11045694e+00 4.06914568e+00 4.06914568e+00 4.02865696e+00 4.02865696e+00 4.02865696e+00 4.06914568e+00 4.06914568e+00 4.08969688e+00 4.11045694e+00 4.11045694e+00 4.11045694e+00 4.11045694e+00 4.11045694e+00 4.13142872e+00 4.17402077e+00 4.17402077e+00 4.17402077e+00 4.13142872e+00 4.13142872e+00 4.13142872e+00 4.21750021e+00 4.21750021e+00 4.26189470e+00 4.26189470e+00 4.26189470e+00 4.28444433e+00 4.28444433e+00 4.26189470e+00 4.26189470e+00 4.26189470e+00 4.26189470e+00 4.26189470e+00 4.26189470e+00 4.26189470e+00 4.23958111e+00 4.23958111e+00 4.21750021e+00 4.21750021e+00 4.21750021e+00 4.21750021e+00 4.21750021e+00 4.21750021e+00 4.21750021e+00 4.21750021e+00 4.21750021e+00 4.21750021e+00 4.21750021e+00 4.21750021e+00 4.21750021e+00 4.21750021e+00 4.21750021e+00 4.21750021e+00 4.19564772e+00 4.17402077e+00 4.15261555e+00 4.11045694e+00 4.11045694e+00 4.11045694e+00 4.11045694e+00 4.13142872e+00 -1. -1. -1. -1. -1. -1. -1. -1. -1. -1. -1. -1. -1. -1. -1. -1. -1. -1. -1. -1. -1. -1. -1. -1. -1. -1. -1. -1. -1. -1. -1. -1. -1. -1. -1. -1. -1. -1. -1. -1. -1. -1. -1. -1. -1. -1. -1. -1. -1. -1. -1. 8.10570598e-01 8.03333342e-01 8.03333342e-01 8.03333342e-01 8.03333342e-01 8.03333342e-01 8.03333342e-01 8.03333342e-01 8.03333342e-01 8.03333342e-01 8.03333342e-01 8.03333342e-01 8.03333342e-01 8.03333342e-01 8.03333342e-01 8.03333342e-01 -1. -1. -1. -1. -1. -1. -1. -1. -1. 8.28822911e-01 8.25443447e-01 8.22091401e-01 8.20425570e-01 8.17114055e-01 8.16290319e-01 8.15468311e-01 8.14647913e-01 8.13012064e-01 8.10570598e-01 8.12196612e-01 8.13829184e-01 3.53606987e+00 3.53606987e+00 3.47536492e+00 3.46051288e+00 3.46051288e+00 3.49034476e+00 3.50545454e+00 3.46051288e+00 3.46051288e+00 3.46051288e+00 3.46051288e+00 3.50545454e+00 -1. -1. -1. -1. -1. -1. -1. -1. -1. -1. -1. -1. -1. -1. -1. -1.
    4.28444433e+00 4.28444433e+00 4.26189470e+00 4.26189470e+00 4.26189470e+00 4.26189470e+00 4.26189470e+00 4.26189470e+00 4.23958111e+00 4.23958111e+00 4.21750021e+00 4.21750021e+00 4.19564772e+00 4.13142872e+00 4.11045694e+00 4.11045694e+00 4.13142872e+00 4.13142872e+00 4.13142872e+00 4.13142872e+00 4.06914568e+00 3.96941185e+00 3.95004892e+00 3.95004892e+00 3.96941185e+00 3.96941185e+00 3.91188407e+00 3.89307690e+00 3.85599995e+00 3.87444973e+00 3.87444973e+00 3.85599995e+00 3.83772516e+00 3.83772516e+00 3.83772516e+00 3.83772516e+00 3.83772516e+00 3.83772516e+00 3.81962276e+00 3.81962276e+00 3.80169010e+00 3.80169010e+00 3.78392529e+00 3.76632571e+00 3.78392529e+00 3.83772516e+00 3.87444973e+00 3.93087387e+00 4.04879999e+00 4.04879999e+00 4.04879999e+00 4.04879999e+00 4.04879999e+00 4.04879999e+00 4.06914568e+00 4.08969688e+00 4.15261555e+00 4.19564772e+00 4.21750021e+00 4.21750021e+00 4.23958111e+00 4.23958111e+00 4.23958111e+00 4.23958111e+00 4.23958111e+00 4.23958111e+00 4.23958111e+00 4.23958111e+00 4.23958111e+00 4.23958111e+00 4.23958111e+00 4.23958111e+00 4.21750021e+00 4.21750021e+00 4.19564772e+00 4.17402077e+00 4.15261555e+00 4.13142872e+00 4.13142872e+00 4.13142872e+00 4.15261555e+00 4.15261555e+00 4.15261555e+00 4.13142872e+00 4.11045694e+00 4.06914568e+00 4.06914568e+00 4.04879999e+00 4.04879999e+00 4.06914568e+00 4.08969688e+00 4.08969688e+00 4.11045694e+00 4.11045694e+00 4.11045694e+00 4.11045694e+00 4.11045694e+00 4.13142872e+00 4.17402077e+00 4.17402077e+00 4.17402077e+00 4.15261555e+00 4.13142872e+00 4.15261555e+00 4.21750021e+00 4.21750021e+00 4.23958111e+00 4.26189470e+00 4.26189470e+00 4.28444433e+00 4.26189470e+00 4.26189470e+00 4.26189470e+00 4.26189470e+00 4.26189470e+00 4.26189470e+00 4.26189470e+00 4.26189470e+00 4.23958111e+00 4.23958111e+00 4.21750021e+00 4.21750021e+00 4.23958111e+00 4.23958111e+00 4.23958111e+00 4.23958111e+00 4.23958111e+00 4.23958111e+00 4.21750021e+00 4.21750021e+00 4.21750021e+00 4.21750021e+00 4.21750021e+00 4.21750021e+00 4.21750021e+00 4.21750021e+00 4.19564772e+00 4.17402077e+00 4.15261555e+00 4.11045694e+00 4.11045694e+00 4.11045694e+00 4.13142872e+00 -1. -1. -1. -1. -1. -1. -1. -1. -1. -1. -1. -1. -1. -1. -1. -1. -1. -1. -1. -1. -1. -1. -1. -1. -1. -1. -1. -1. -1. -1. -1. -1. -1. -1. -1. -1. -1. -1. -1. -1. -1. -1. -1. -1. -1. -1. -1. -1. -1. -1. -1. -1. 8.10570598e-01 8.03333342e-01 8.03333342e-01 8.03333342e-01 8.03333342e-01 8.03333342e-01 8.03333342e-01 8.03333342e-01 8.03333342e-01 8.03333342e-01 8.03333342e-01 8.03333342e-01 8.03333342e-01 8.03333342e-01 8.03333342e-01 8.03333342e-01 -1. -1. -1. -1. -1. -1. -1. -1. 8.29672158e-01 8.28822911e-01 8.27129722e-01 8.25443447e-01 8.22091401e-01 8.18766415e-01 8.17114055e-01 8.16290319e-01 8.15468311e-01 8.14647913e-01 8.13012064e-01 8.13829184e-01 8.16290319e-01 3.53606987e+00 3.53606987e+00 3.50545454e+00 3.46051288e+00 3.49034476e+00 3.50545454e+00 3.52069569e+00 3.50545454e+00 3.46051288e+00 3.47536492e+00 3.47536492e+00 -1. -1. -1. -1. -1. -1. -1. -1. -1. -1. -1. -1. -1. -1. -1. -1. -1.
    4.28444433e+00 4.28444433e+00 4.28444433e+00 4.28444433e+00 4.28444433e+00 4.28444433e+00 4.28444433e+00 4.28444433e+00 4.28444433e+00 4.26189470e+00 4.23958111e+00 4.21750021e+00 4.21750021e+00 4.19564772e+00 4.15261555e+00 4.15261555e+00 4.17402077e+00 4.17402077e+00 4.17402077e+00 4.17402077e+00 4.17402077e+00 4.11045694e+00 4.06914568e+00 4.06914568e+00 4.06914568e+00 3.98896551e+00 3.96941185e+00 3.91188407e+00 3.89307690e+00 3.89307690e+00 3.89307690e+00 3.89307690e+00 3.85599995e+00 3.85599995e+00 3.85599995e+00 3.85599995e+00 3.85599995e+00 3.85599995e+00 3.85599995e+00 3.83772516e+00 3.81962276e+00 3.80169010e+00 3.80169010e+00 3.80169010e+00 3.83772516e+00 3.89307690e+00 4.04879999e+00 4.08969688e+00 4.08969688e+00 4.08969688e+00 4.06914568e+00 4.06914568e+00 4.06914568e+00 4.06914568e+00 4.08969688e+00 4.13142872e+00 4.17402077e+00 4.21750021e+00 4.21750021e+00 4.23958111e+00 4.23958111e+00 4.26189470e+00 4.26189470e+00 4.26189470e+00 4.26189470e+00 4.26189470e+00 4.26189470e+00 4.26189470e+00 4.26189470e+00 4.26189470e+00 4.23958111e+00 4.23958111e+00 4.23958111e+00 4.21750021e+00 4.21750021e+00 4.17402077e+00 4.15261555e+00 4.15261555e+00 4.15261555e+00 4.15261555e+00 4.17402077e+00 4.17402077e+00 4.17402077e+00 4.15261555e+00 4.13142872e+00 4.11045694e+00 4.08969688e+00 4.06914568e+00 4.06914568e+00 4.06914568e+00 4.11045694e+00 4.11045694e+00 4.11045694e+00 4.13142872e+00 4.11045694e+00 4.13142872e+00 4.13142872e+00 4.13142872e+00 4.17402077e+00 4.19564772e+00 4.19564772e+00 4.17402077e+00 4.15261555e+00 4.19564772e+00 4.21750021e+00 4.23958111e+00 4.26189470e+00 4.26189470e+00 4.28444433e+00 4.28444433e+00 4.28444433e+00 4.26189470e+00 4.26189470e+00 4.26189470e+00 4.26189470e+00 4.26189470e+00 4.26189470e+00 4.26189470e+00 4.26189470e+00 4.23958111e+00 4.23958111e+00 4.23958111e+00 4.23958111e+00 4.23958111e+00 4.23958111e+00 4.23958111e+00 4.23958111e+00 4.23958111e+00 4.23958111e+00 4.21750021e+00 4.21750021e+00 4.21750021e+00 4.21750021e+00 4.21750021e+00 4.21750021e+00 4.19564772e+00 4.17402077e+00 4.17402077e+00 4.13142872e+00 4.11045694e+00 4.11045694e+00 4.11045694e+00 4.13142872e+00 -1. -1. -1. -1. -1. -1. -1. -1. -1. -1. -1. -1. -1. -1. -1. -1. -1. -1. -1. -1. -1. -1. -1. -1. -1. -1. -1. -1. -1. -1. -1. -1. -1. -1. -1. -1. -1. -1. -1. -1. -1. -1. -1. -1. -1. -1. -1. -1. -1. -1. -1. -1. 8.03333342e-01 8.03333342e-01 8.03333342e-01 8.03333342e-01 8.03333342e-01 8.03333342e-01 8.03333342e-01 8.03333342e-01 8.03333342e-01 8.03333342e-01 8.03333342e-01 8.03333342e-01 8.03333342e-01 8.03333342e-01 8.03333342e-01 8.03333342e-01 -1. -1. -1. -1. -1. -1. -1. 8.30523074e-01 8.30523074e-01 8.29672158e-01 8.28822911e-01 8.27129722e-01 8.25443447e-01 8.21257591e-01 8.18766415e-01 8.18766415e-01 8.17114055e-01 8.15468311e-01 8.15468311e-01 8.15468311e-01 3.56722474e+00 3.58300900e+00 3.55157900e+00 3.52069569e+00 3.49034476e+00 3.50545454e+00 3.52069569e+00 3.52069569e+00 3.53606987e+00 3.50545454e+00 -1. -1. -1. -1. -1. -1. -1. -1. -1. -1. -1. -1. -1. -1. -1. -1. -1. -1. -1.
    4.33026743e+00 4.33026743e+00 4.33026743e+00 4.30723429e+00 4.30723429e+00 4.30723429e+00 4.30723429e+00 4.30723429e+00 4.30723429e+00 4.30723429e+00 4.28444433e+00 4.26189470e+00 4.23958111e+00 4.21750021e+00 4.19564772e+00 4.19564772e+00 4.21750021e+00 4.21750021e+00 4.21750021e+00 4.19564772e+00 4.19564772e+00 4.19564772e+00 4.17402077e+00 4.15261555e+00 4.11045694e+00 4.06914568e+00 3.98896551e+00 3.95004892e+00 3.91188407e+00 3.91188407e+00 3.91188407e+00 3.89307690e+00 3.89307690e+00 3.89307690e+00 3.89307690e+00 3.87444973e+00 3.87444973e+00 3.87444973e+00 3.85599995e+00 3.85599995e+00 3.85599995e+00 3.85599995e+00 3.87444973e+00 3.89307690e+00 3.93087387e+00 4.04879999e+00 4.13142872e+00 4.15261555e+00 4.13142872e+00 4.11045694e+00 4.11045694e+00 4.11045694e+00 4.11045694e+00 4.11045694e+00 4.13142872e+00 4.17402077e+00 4.21750021e+00 4.21750021e+00 4.23958111e+00 4.26189470e+00 4.26189470e+00 4.28444433e+00 4.28444433e+00 4.28444433e+00 4.28444433e+00 4.28444433e+00 4.28444433e+00 4.28444433e+00 4.28444433e+00 4.28444433e+00 4.26189470e+00 4.26189470e+00 4.23958111e+00 4.23958111e+00 4.21750021e+00 4.19564772e+00 4.17402077e+00 4.17402077e+00 4.17402077e+00 4.17402077e+00 4.19564772e+00 4.19564772e+00 4.19564772e+00 4.19564772e+00 4.17402077e+00 4.13142872e+00 4.13142872e+00 4.11045694e+00 4.08969688e+00 4.11045694e+00 4.11045694e+00 4.13142872e+00 4.13142872e+00 4.13142872e+00 4.13142872e+00 4.13142872e+00 4.13142872e+00 4.17402077e+00 4.19564772e+00 4.21750021e+00 4.21750021e+00 4.19564772e+00 4.19564772e+00 4.21750021e+00 4.26189470e+00 4.28444433e+00 4.28444433e+00 4.30723429e+00 4.30723429e+00 4.30723429e+00 4.30723429e+00 4.28444433e+00 4.28444433e+00 4.28444433e+00 4.28444433e+00 4.28444433e+00 4.28444433e+00 4.28444433e+00 4.28444433e+00 4.26189470e+00 4.26189470e+00 4.26189470e+00 4.23958111e+00 4.23958111e+00 4.23958111e+00 4.23958111e+00 4.23958111e+00 4.23958111e+00 4.23958111e+00 4.23958111e+00 4.21750021e+00 4.21750021e+00 4.21750021e+00 4.21750021e+00 4.19564772e+00 4.17402077e+00 4.17402077e+00 4.15261555e+00 4.11045694e+00 4.08969688e+00 4.06914568e+00 4.06914568e+00 4.13142872e+00 -1. -1. -1. -1. -1. -1. -1. -1. -1. -1. -1. -1. -1. -1. -1. -1. -1. -1. -1. -1. -1. -1. -1. -1. -1. -1. -1. -1. -1. -1. -1. -1. -1. -1. -1. -1. -1. -1. -1. -1. -1. -1. -1. -1. -1. -1. -1. -1. -1. -1. -1. 8.09760034e-01 8.03333342e-01 8.03333342e-01 8.03333342e-01 8.03333342e-01 8.03333342e-01 8.03333342e-01 8.03333342e-01 8.03333342e-01 8.03333342e-01 8.03333342e-01 8.03333342e-01 8.03333342e-01 8.03333342e-01 8.03333342e-01 8.03333342e-01 8.03333342e-01 8.03333342e-01 -1. -1. -1. -1. -1. 8.36528957e-01 8.31375778e-01 8.30523074e-01 8.30523074e-01 8.29672158e-01 8.28822911e-01 8.27129722e-01 8.24602842e-01 8.21257591e-01 8.21257591e-01 8.18766415e-01 8.17114055e-01 8.15468311e-01 8.15468311e-01 3.56722474e+00 3.59893346e+00 3.56722474e+00 3.53606987e+00 3.50545454e+00 3.50545454e+00 3.53606987e+00 3.53606987e+00 3.53606987e+00 -1. -1. -1. -1. -1. -1. -1. -1. -1. -1. -1. -1. -1. -1. -1. -1. -1. -1. -1. -1.
    4.40086985e+00 4.40086985e+00 4.37708092e+00 4.37708092e+00 4.37708092e+00 4.37708092e+00 4.35354853e+00 4.35354853e+00 4.35354853e+00 4.35354853e+00 4.33026743e+00 4.33026743e+00 4.30723429e+00 4.28444433e+00 4.28444433e+00 4.28444433e+00 4.30723429e+00 4.30723429e+00 4.23958111e+00 4.23958111e+00 4.23958111e+00 4.23958111e+00 4.23958111e+00 4.23958111e+00 4.21750021e+00 4.11045694e+00 3.98896551e+00 3.95004892e+00 3.93087387e+00 3.93087387e+00 3.91188407e+00 3.91188407e+00 3.89307690e+00 3.89307690e+00 3.89307690e+00 3.87444973e+00 3.87444973e+00 3.87444973e+00 3.85599995e+00 3.85599995e+00 3.85599995e+00 3.87444973e+00 3.89307690e+00 3.93087387e+00 4.04879999e+00 4.11045694e+00 4.13142872e+00 4.15261555e+00 4.15261555e+00 4.13142872e+00 4.11045694e+00 4.11045694e+00 4.11045694e+00 4.11045694e+00 4.15261555e+00 4.21750021e+00 4.23958111e+00 4.28444433e+00 4.28444433e+00 4.30723429e+00 4.30723429e+00 4.33026743e+00 4.33026743e+00 4.33026743e+00 4.33026743e+00 4.33026743e+00 4.30723429e+00 4.30723429e+00 4.30723429e+00 4.30723429e+00 4.30723429e+00 4.28444433e+00 4.28444433e+00 4.23958111e+00 4.21750021e+00 4.21750021e+00 4.19564772e+00 4.19564772e+00 4.19564772e+00 4.19564772e+00 4.21750021e+00 4.21750021e+00 4.21750021e+00 4.21750021e+00 4.21750021e+00 4.19564772e+00 4.19564772e+00 4.13142872e+00 4.13142872e+00 4.11045694e+00 4.13142872e+00 4.15261555e+00 4.15261555e+00 4.15261555e+00 4.15261555e+00 4.15261555e+00 4.15261555e+00 4.19564772e+00 4.28444433e+00 4.30723429e+00 4.30723429e+00 4.28444433e+00 4.28444433e+00 4.28444433e+00 4.40086985e+00 4.40086985e+00 4.40086985e+00 4.40086985e+00 4.40086985e+00 4.40086985e+00 4.37708092e+00 4.35354853e+00 4.35354853e+00 4.33026743e+00 4.33026743e+00 4.33026743e+00 4.33026743e+00 4.33026743e+00 4.28444433e+00 4.28444433e+00 4.28444433e+00 4.28444433e+00 4.28444433e+00 4.26189470e+00 4.26189470e+00 4.26189470e+00 4.26189470e+00 4.26189470e+00 4.23958111e+00 4.23958111e+00 4.21750021e+00 4.21750021e+00 4.21750021e+00 4.19564772e+00 4.19564772e+00 4.17402077e+00 4.15261555e+00 4.11045694e+00 4.08969688e+00 4.06914568e+00 4.06914568e+00 4.06914568e+00 4.06914568e+00 -1. -1. -1. -1. -1. -1. -1. -1. -1. -1. -1. -1. -1. -1. -1. -1. -1. -1. -1. -1. -1. -1. -1. -1. -1. -1. -1. -1. -1. -1. -1. -1. -1. -1. -1. -1. -1. -1. -1. -1. -1. -1. -1. -1. -1. -1. -1. -1. -1. -1. -1. 8.09760034e-01 8.03333342e-01 8.03333342e-01 8.03333342e-01 8.03333342e-01 8.03333342e-01 8.03333342e-01 8.03333342e-01 8.03333342e-01 8.03333342e-01 8.03333342e-01 8.03333342e-01 8.03333342e-01 8.03333342e-01 8.03333342e-01 8.03333342e-01 8.03333342e-01 8.03333342e-01 -1. -1. -1. -1. 8.47916245e-01 8.39129567e-01 8.33944380e-01 8.32230210e-01 8.30523074e-01 8.29672158e-01 8.29672158e-01 8.27975452e-01 8.25443447e-01 8.24602842e-01 8.24602842e-01 8.23764026e-01 8.20425570e-01 8.17114055e-01 8.16290319e-01 3.59893346e+00 3.59893346e+00 3.58300900e+00 3.55157900e+00 3.50545454e+00 3.50545454e+00 3.53606987e+00 3.53606987e+00 -1. -1. -1. -1. -1. -1. -1. -1. -1. -1. -1. -1. -1. -1. -1. -1. -1. -1. -1. -1. -1.
    4.44923067e+00 4.44923067e+00 4.44923067e+00 4.42491817e+00 4.42491817e+00 4.42491817e+00 4.42491817e+00 4.42491817e+00 4.42491817e+00 4.42491817e+00 4.40086985e+00 4.40086985e+00 4.40086985e+00 4.40086985e+00 4.40086985e+00 4.42491817e+00 4.42491817e+00 4.35354853e+00 4.35354853e+00 4.37708092e+00 4.40086985e+00 4.40086985e+00 4.42491817e+00 4.42491817e+00 4.42491817e+00 4.42491817e+00 4.21750021e+00 3.96941185e+00 3.93087387e+00 3.93087387e+00 3.93087387e+00 3.91188407e+00 3.89307690e+00 3.89307690e+00 3.89307690e+00 3.87444973e+00 3.87444973e+00 3.85599995e+00 3.85599995e+00 3.85599995e+00 3.87444973e+00 3.87444973e+00 3.89307690e+00 3.93087387e+00 4.06914568e+00 4.11045694e+00 4.13142872e+00 4.15261555e+00 4.15261555e+00 4.15261555e+00 4.13142872e+00 4.11045694e+00 4.11045694e+00 4.13142872e+00 4.17402077e+00 4.23958111e+00 4.28444433e+00 4.30723429e+00 4.33026743e+00 4.35354853e+00 4.35354853e+00 4.35354853e+00 4.37708092e+00 4.37708092e+00 4.37708092e+00 4.35354853e+00 4.35354853e+00 4.35354853e+00 4.35354853e+00 4.33026743e+00 4.33026743e+00 4.30723429e+00 4.30723429e+00 4.28444433e+00 4.23958111e+00 4.23958111e+00 4.23958111e+00 4.23958111e+00 4.26189470e+00 4.26189470e+00 4.30723429e+00 4.30723429e+00 4.28444433e+00 4.28444433e+00 4.28444433e+00 4.28444433e+00 4.35354853e+00 4.42491817e+00 4.42491817e+00 4.44923067e+00 4.44923067e+00 4.44923067e+00 4.44923067e+00 4.42491817e+00 4.28444433e+00 4.28444433e+00 4.40086985e+00 4.40086985e+00 4.42491817e+00 4.42491817e+00 4.40086985e+00 4.40086985e+00 4.40086985e+00 4.42491817e+00 4.44923067e+00 4.44923067e+00 4.44923067e+00 4.42491817e+00 4.42491817e+00 4.42491817e+00 4.42491817e+00 4.40086985e+00 4.40086985e+00 4.37708092e+00 4.37708092e+00 4.37708092e+00 4.35354853e+00 4.35354853e+00 4.33026743e+00 4.30723429e+00 4.28444433e+00 4.28444433e+00 4.28444433e+00 4.28444433e+00 4.28444433e+00 4.28444433e+00 4.28444433e+00 4.26189470e+00 4.26189470e+00 4.23958111e+00 4.23958111e+00 4.21750021e+00 4.21750021e+00 4.21750021e+00 4.19564772e+00 4.17402077e+00 4.15261555e+00 4.13142872e+00 4.11045694e+00 4.06914568e+00 4.06914568e+00 4.06914568e+00 4.08969688e+00 4.08969688e+00 -1. -1. -1. -1. -1. -1. -1. -1. -1. -1. -1. -1. -1. -1. -1. -1. -1. -1. -1. -1. -1. -1. -1. -1. -1. -1. -1. -1. -1. -1. -1. -1. -1. -1. -1. -1. -1. -1. -1. -1. -1. -1. -1. -1. -1. -1. -1. -1. -1. -1. 8.11382771e-01 8.09760034e-01 8.03333342e-01 8.03333342e-01 8.03333342e-01 8.03333342e-01 8.03333342e-01 8.03333342e-01 8.03333342e-01 8.03333342e-01 8.03333342e-01 8.03333342e-01 8.03333342e-01 8.03333342e-01 8.03333342e-01 8.03333342e-01 8.03333342e-01 8.03333342e-01 8.03333342e-01 -1. -1. 8.54177237e-01 8.47916245e-01 8.41746390e-01 8.39129567e-01 8.33944380e-01 8.30523074e-01 8.29672158e-01 8.29672158e-01 8.29672158e-01 8.27129722e-01 8.26285720e-01 8.25443447e-01 8.25443447e-01 8.24602842e-01 -1. -1. 3.61500001e+00 3.59893346e+00 3.58300900e+00 3.56722474e+00 3.55157900e+00 3.52069569e+00 3.53606987e+00 -1. -1. -1. -1. -1. -1. -1. -1. -1. -1. -1. -1. -1. -1. -1. -1. -1. -1. -1. -1. -1. -1.
    4.49866676e+00 4.49866676e+00 4.47381210e+00 4.47381210e+00 4.47381210e+00 4.47381210e+00 4.47381210e+00 4.44923067e+00 4.44923067e+00 4.44923067e+00 4.44923067e+00 4.44923067e+00 4.42491817e+00 4.42491817e+00 4.42491817e+00 4.42491817e+00 4.42491817e+00 4.37708092e+00 4.37708092e+00 4.40086985e+00 4.42491817e+00 4.42491817e+00 4.42491817e+00 4.44923067e+00 4.44923067e+00 4.44923067e+00 4.44923067e+00 3.96941185e+00 3.93087387e+00 3.93087387e+00 3.93087387e+00 3.91188407e+00 3.89307690e+00 3.89307690e+00 3.89307690e+00 3.89307690e+00 3.87444973e+00 3.87444973e+00 3.87444973e+00 3.87444973e+00 3.89307690e+00 3.89307690e+00 3.93087387e+00 4.00871277e+00 4.08969688e+00 4.11045694e+00 4.15261555e+00 4.15261555e+00 4.15261555e+00 4.15261555e+00 4.15261555e+00 4.13142872e+00 4.15261555e+00 4.15261555e+00 4.21750021e+00 4.26189470e+00 4.30723429e+00 4.35354853e+00 4.37708092e+00 4.40086985e+00 4.42491817e+00 4.42491817e+00 4.42491817e+00 4.42491817e+00 4.42491817e+00 4.40086985e+00 4.37708092e+00 4.37708092e+00 4.35354853e+00 4.35354853e+00 4.33026743e+00 4.33026743e+00 4.30723429e+00 4.30723429e+00 4.28444433e+00 4.26189470e+00 4.23958111e+00 4.26189470e+00 4.28444433e+00 4.30723429e+00 4.33026743e+00 4.33026743e+00 4.33026743e+00 4.35354853e+00 4.35354853e+00 4.42491817e+00 4.44923067e+00 4.44923067e+00 4.47381210e+00 4.49866676e+00 4.49866676e+00 4.49866676e+00 4.49866676e+00 4.49866676e+00 4.49866676e+00 4.52379894e+00 4.52379894e+00 4.49866676e+00 4.49866676e+00 4.47381210e+00 4.44923067e+00 4.44923067e+00 4.44923067e+00 4.47381210e+00 4.47381210e+00 4.47381210e+00 4.47381210e+00 4.47381210e+00 4.47381210e+00 4.44923067e+00 4.44923067e+00 4.44923067e+00 4.44923067e+00 4.44923067e+00 4.42491817e+00 4.42491817e+00 4.40086985e+00 4.37708092e+00 4.35354853e+00 4.33026743e+00 4.30723429e+00 4.30723429e+00 4.30723429e+00 4.30723429e+00 4.28444433e+00 4.28444433e+00 4.28444433e+00 4.28444433e+00 4.26189470e+00 4.26189470e+00 4.23958111e+00 4.21750021e+00 4.21750021e+00 4.21750021e+00 4.19564772e+00 4.17402077e+00 4.17402077e+00 4.13142872e+00 4.11045694e+00 4.06914568e+00 4.06914568e+00 4.06914568e+00 4.08969688e+00 4.08969688e+00 -1. -1. -1. -1. -1. -1. -1. -1. -1. -1. -1. -1. -1. -1. -1. -1. -1. -1. -1. -1. -1. -1. -1. -1. -1. -1. -1. -1. -1. -1. -1. -1. -1. -1. -1. -1. -1. -1. -1. -1. -1. -1. -1. -1. -1. -1. -1. -1. -1. -1. 8.12196612e-01 8.11382771e-01 8.09760034e-01 8.03333342e-01 8.03333342e-01 8.03333342e-01 8.03333342e-01 8.03333342e-01 8.03333342e-01 8.03333342e-01 8.03333342e-01 8.03333342e-01 8.03333342e-01 8.03333342e-01 8.03333342e-01 8.03333342e-01 8.03333342e-01 8.03333342e-01 8.03333342e-01 8.03333342e-01 8.55079234e-01 8.54177237e-01 8.51482689e-01 8.43500018e-01 8.40872288e-01 8.33944380e-01 8.30523074e-01 8.29672158e-01 8.29672158e-01 8.30523074e-01 8.27129722e-01 8.27129722e-01 8.26285720e-01 8.26285720e-01 8.25443447e-01 -1. -1. -1. 3.59893346e+00 3.58300900e+00 3.59893346e+00 -1. -1. -1. -1. -1. -1. -1. -1. -1. -1. -1. -1. -1. -1. -1. -1. -1. -1. -1. -1. -1. -1. -1. -1. -1.
    4.52379894e+00 4.52379894e+00 4.52379894e+00 4.52379894e+00 4.52379894e+00 4.52379894e+00 4.49866676e+00 4.49866676e+00 4.49866676e+00 4.49866676e+00 4.49866676e+00 4.47381210e+00 4.44923067e+00 4.42491817e+00 4.42491817e+00 4.42491817e+00 4.37708092e+00 4.37708092e+00 4.40086985e+00 4.42491817e+00 4.42491817e+00 4.42491817e+00 4.42491817e+00 4.44923067e+00 4.44923067e+00 4.44923067e+00 4.47381210e+00 4.42491817e+00 3.96941185e+00 3.93087387e+00 3.93087387e+00 3.93087387e+00 3.91188407e+00 3.89307690e+00 3.89307690e+00 3.89307690e+00 3.89307690e+00 3.89307690e+00 3.89307690e+00 3.89307690e+00 3.91188407e+00 3.95004892e+00 4.00871277e+00 4.08969688e+00 4.11045694e+00 4.15261555e+00 4.17402077e+00 4.19564772e+00 4.19564772e+00 4.19564772e+00 4.19564772e+00 4.17402077e+00 4.19564772e+00 4.21750021e+00 4.23958111e+00 4.30723429e+00 4.40086985e+00 4.42491817e+00 4.42491817e+00 4.44923067e+00 4.44923067e+00 4.44923067e+00 4.44923067e+00 4.44923067e+00 4.44923067e+00 4.44923067e+00 4.42491817e+00 4.42491817e+00 4.40086985e+00 4.37708092e+00 4.35354853e+00 4.33026743e+00 4.33026743e+00 4.30723429e+00 4.28444433e+00 4.26189470e+00 4.26189470e+00 4.28444433e+00 4.30723429e+00 4.33026743e+00 4.35354853e+00 4.37708092e+00 4.37708092e+00 4.40086985e+00 4.44923067e+00 4.47381210e+00 4.47381210e+00 4.49866676e+00 4.49866676e+00 4.49866676e+00 4.49866676e+00 4.49866676e+00 4.49866676e+00 4.49866676e+00 4.52379894e+00 4.54921341e+00 4.52379894e+00 4.52379894e+00 4.49866676e+00 4.49866676e+00 4.47381210e+00 4.47381210e+00 4.47381210e+00 4.47381210e+00 4.49866676e+00 4.49866676e+00 4.52379894e+00 4.52379894e+00 4.49866676e+00 4.49866676e+00 4.49866676e+00 4.49866676e+00 4.49866676e+00 4.49866676e+00 4.49866676e+00 4.47381210e+00 4.47381210e+00 4.44923067e+00 4.42491817e+00 4.35354853e+00 4.33026743e+00 4.33026743e+00 4.30723429e+00 4.30723429e+00 4.30723429e+00 4.30723429e+00 4.28444433e+00 4.28444433e+00 4.28444433e+00 4.26189470e+00 4.23958111e+00 4.21750021e+00 4.21750021e+00 4.21750021e+00 4.19564772e+00 4.19564772e+00 4.17402077e+00 4.15261555e+00 4.13142872e+00 4.08969688e+00 4.06914568e+00 -1. -1. -1. -1. -1. -1. -1. -1. -1. -1. -1. -1. -1. -1. -1. -1. -1. -1. -1. -1. -1. -1. -1. -1. -1. -1. -1. -1. -1. -1. -1. -1. -1. -1. -1. -1. -1. -1. -1. -1. -1. -1. -1. -1. -1. -1. -1. -1. -1. -1. -1. -1. 8.14647913e-01 8.13012064e-01 8.13012064e-01 8.11382771e-01 8.03333342e-01 8.03333342e-01 8.03333342e-01 8.03333342e-01 8.03333342e-01 8.03333342e-01 8.03333342e-01 8.03333342e-01 8.03333342e-01 8.03333342e-01 8.03333342e-01 8.03333342e-01 8.03333342e-01 8.03333342e-01 8.03333342e-01 8.03333342e-01 8.03333342e-01 8.55079234e-01 8.55079234e-01 8.53277147e-01 8.44379544e-01 8.41746390e-01 8.33944380e-01 8.29672158e-01 8.29672158e-01 8.29672158e-01 8.29672158e-01 8.27129722e-01 8.27129722e-01 8.26285720e-01 8.26285720e-01 8.03333342e-01 8.03333342e-01 -1. -1. -1. -1. -1. -1. -1. -1. -1. -1. -1. -1. -1. -1. -1. -1. -1. -1. -1. -1. -1. -1. -1. -1. -1. -1. -1. -1. -1. -1.
    4.57491541e+00 4.57491541e+00 4.57491541e+00 4.57491541e+00 4.54921341e+00 4.54921341e+00 4.54921341e+00 4.54921341e+00 4.54921341e+00 4.54921341e+00 4.52379894e+00 4.49866676e+00 4.47381210e+00 4.44923067e+00 4.42491817e+00 4.40086985e+00 4.37708092e+00 4.37708092e+00 4.40086985e+00 4.42491817e+00 4.42491817e+00 4.42491817e+00 4.42491817e+00 4.42491817e+00 4.42491817e+00 4.42491817e+00 4.42491817e+00 4.40086985e+00 4.00871277e+00 3.95004892e+00 3.95004892e+00 3.93087387e+00 3.93087387e+00 3.91188407e+00 3.91188407e+00 3.89307690e+00 3.89307690e+00 3.89307690e+00 3.91188407e+00 3.93087387e+00 3.95004892e+00 4.02865696e+00 4.13142872e+00 4.17402077e+00 4.17402077e+00 4.21750021e+00 4.21750021e+00 4.23958111e+00 4.23958111e+00 4.23958111e+00 4.21750021e+00 4.21750021e+00 4.21750021e+00 4.23958111e+00 4.30723429e+00 4.42491817e+00 4.44923067e+00 4.44923067e+00 4.47381210e+00 4.47381210e+00 4.47381210e+00 4.47381210e+00 4.47381210e+00 4.47381210e+00 4.47381210e+00 4.47381210e+00 4.44923067e+00 4.44923067e+00 4.42491817e+00 4.40086985e+00 4.35354853e+00 4.35354853e+00 4.33026743e+00 4.30723429e+00 4.30723429e+00 4.28444433e+00 4.30723429e+00 4.33026743e+00 4.33026743e+00 4.40086985e+00 4.40086985e+00 4.42491817e+00 4.42491817e+00 4.47381210e+00 4.49866676e+00 4.49866676e+00 4.52379894e+00 4.52379894e+00 4.52379894e+00 4.52379894e+00 4.52379894e+00 4.52379894e+00 4.52379894e+00 4.52379894e+00 4.54921341e+00 4.54921341e+00 4.54921341e+00 4.54921341e+00 4.52379894e+00 4.49866676e+00 4.49866676e+00 4.47381210e+00 4.49866676e+00 4.49866676e+00 4.52379894e+00 4.52379894e+00 4.52379894e+00 4.52379894e+00 4.52379894e+00 4.52379894e+00 4.52379894e+00 4.52379894e+00 4.52379894e+00 4.52379894e+00 4.52379894e+00 4.52379894e+00 4.52379894e+00 4.49866676e+00 4.47381210e+00 4.42491817e+00 4.40086985e+00 4.35354853e+00 4.35354853e+00 4.33026743e+00 4.33026743e+00 4.30723429e+00 4.30723429e+00 4.28444433e+00 4.28444433e+00 4.26189470e+00 4.23958111e+00 4.21750021e+00 4.21750021e+00 4.19564772e+00 4.19564772e+00 4.19564772e+00 4.17402077e+00 4.15261555e+00 4.13142872e+00 4.08969688e+00 4.08969688e+00 -1. -1. -1. -1. -1. -1. -1. -1. -1. -1. -1. -1. -1. -1. -1. -1. -1. -1. -1. -1. -1. -1. -1. -1. -1. -1. -1. -1. -1. -1. -1. -1. -1. -1. -1. -1. -1. -1. -1. -1. -1. -1. -1. -1. -1. -1. -1. -1. -1. -1. -1. -1. 8.16290319e-01 8.14647913e-01 8.14647913e-01 8.13012064e-01 8.10570598e-01 8.03333342e-01 8.03333342e-01 8.03333342e-01 8.03333342e-01 8.03333342e-01 8.03333342e-01 8.03333342e-01 8.03333342e-01 8.03333342e-01 8.03333342e-01 8.03333342e-01 8.03333342e-01 8.03333342e-01 8.03333342e-01 8.03333342e-01 8.03333342e-01 8.55079234e-01 8.55079234e-01 8.55079234e-01 8.52378964e-01 8.40872288e-01 8.33086431e-01 8.29672158e-01 8.29672158e-01 8.29672158e-01 8.29672158e-01 8.26285720e-01 8.26285720e-01 8.26285720e-01 8.03333342e-01 8.03333342e-01 8.03333342e-01 8.03333342e-01 -1. -1. -1. -1. -1. -1. -1. -1. -1. -1. -1. -1. -1. -1. -1. -1. -1. -1. -1. -1. -1. -1. -1. -1. -1. -1. -1. -1. -1.
    4.57491541e+00 4.57491541e+00 4.57491541e+00 4.57491541e+00 4.57491541e+00 4.57491541e+00 4.57491541e+00 4.57491541e+00 4.57491541e+00 4.57491541e+00 4.54921341e+00 4.52379894e+00 4.49866676e+00 4.44923067e+00 4.42491817e+00 4.40086985e+00 4.37708092e+00 4.37708092e+00 4.37708092e+00 4.40086985e+00 4.40086985e+00 4.42491817e+00 4.42491817e+00 4.42491817e+00 4.42491817e+00 4.40086985e+00 4.40086985e+00 4.28444433e+00 4.08969688e+00 3.98896551e+00 3.95004892e+00 3.93087387e+00 3.93087387e+00 3.91188407e+00 3.91188407e+00 3.91188407e+00 3.91188407e+00 3.91188407e+00 3.93087387e+00 3.95004892e+00 4.00871277e+00 4.02865696e+00 4.13142872e+00 4.17402077e+00 4.21750021e+00 4.21750021e+00 4.23958111e+00 4.26189470e+00 4.26189470e+00 4.26189470e+00 4.26189470e+00 4.26189470e+00 4.28444433e+00 4.40086985e+00 4.42491817e+00 4.44923067e+00 4.49866676e+00 4.49866676e+00 4.49866676e+00 4.49866676e+00 4.52379894e+00 4.52379894e+00 4.52379894e+00 4.52379894e+00 4.49866676e+00 4.49866676e+00 4.47381210e+00 4.47381210e+00 4.44923067e+00 4.44923067e+00 4.40086985e+00 4.35354853e+00 4.35354853e+00 4.33026743e+00 4.30723429e+00 4.30723429e+00 4.33026743e+00 4.40086985e+00 4.40086985e+00 4.44923067e+00 4.44923067e+00 4.47381210e+00 4.49866676e+00 4.52379894e+00 4.52379894e+00 4.54921341e+00 4.54921341e+00 4.54921341e+00 4.54921341e+00 4.54921341e+00 4.54921341e+00 4.54921341e+00 4.54921341e+00 4.54921341e+00 4.57491541e+00 4.57491541e+00 4.57491541e+00 4.57491541e+00 4.54921341e+00 4.52379894e+00 4.49866676e+00 4.49866676e+00 4.49866676e+00 4.49866676e+00 4.52379894e+00 4.52379894e+00 4.52379894e+00 4.52379894e+00 4.52379894e+00 4.52379894e+00 4.52379894e+00 4.52379894e+00 4.52379894e+00 4.52379894e+00 4.52379894e+00 4.52379894e+00 4.52379894e+00 4.52379894e+00 4.49866676e+00 4.47381210e+00 4.44923067e+00 4.44923067e+00 4.42491817e+00 4.37708092e+00 4.35354853e+00 4.33026743e+00 4.30723429e+00 4.30723429e+00 4.28444433e+00 4.26189470e+00 4.23958111e+00 4.21750021e+00 4.19564772e+00 4.19564772e+00 4.19564772e+00 4.19564772e+00 4.17402077e+00 4.13142872e+00 4.11045694e+00 4.08969688e+00 4.08969688e+00 -1. -1. -1. -1. -1. -1. -1. -1. -1. -1. -1. -1. -1. -1. -1. -1. -1. -1. -1. -1. -1. -1. -1. -1. -1. -1. -1. -1. -1. -1. -1. -1. -1. -1. -1. -1. -1. -1. -1. -1. -1. -1. -1. -1. -1. -1. -1. -1. -1. -1. -1. 8.24602842e-01 8.18766415e-01 8.17114055e-01 8.17114055e-01 8.16290319e-01 8.13829184e-01 8.10570598e-01 8.03333342e-01 8.03333342e-01 8.03333342e-01 8.03333342e-01 8.03333342e-01 8.03333342e-01 8.03333342e-01 8.03333342e-01 8.03333342e-01 8.03333342e-01 8.03333342e-01 8.03333342e-01 8.03333342e-01 8.03333342e-01 8.03333342e-01 8.55079234e-01 8.55079234e-01 8.55079234e-01 8.53277147e-01 8.33944380e-01 8.29672158e-01 8.28822911e-01 8.28822911e-01 8.28822911e-01 8.26285720e-01 8.16290319e-01 8.13829184e-01 8.13012064e-01 8.03333342e-01 8.03333342e-01 8.03333342e-01 8.03333342e-01 -1. -1. -1. -1. -1. -1. -1. -1. -1. -1. -1. -1. -1. -1. -1. -1. -1. -1. -1. -1. -1. -1. -1. -1. -1. -1. -1. -1. -1.
    4.60090923e+00 4.60090923e+00 4.60090923e+00 4.60090923e+00 4.60090923e+00 4.60090923e+00 4.60090923e+00 4.60090923e+00 4.60090923e+00 4.60090923e+00 4.60090923e+00 4.54921341e+00 4.52379894e+00 4.44923067e+00 4.42491817e+00 4.40086985e+00 4.35354853e+00 4.28444433e+00 4.28444433e+00 4.30723429e+00 4.30723429e+00 4.33026743e+00 4.33026743e+00 4.33026743e+00 4.35354853e+00 4.35354853e+00 4.35354853e+00 4.21750021e+00 4.15261555e+00 4.00871277e+00 3.95004892e+00 3.95004892e+00 3.93087387e+00 3.91188407e+00 3.91188407e+00 3.91188407e+00 3.91188407e+00 3.95004892e+00 3.96941185e+00 4.00871277e+00 4.02865696e+00 4.15261555e+00 4.17402077e+00 4.19564772e+00 4.21750021e+00 4.26189470e+00 4.28444433e+00 4.28444433e+00 4.28444433e+00 4.28444433e+00 4.28444433e+00 4.28444433e+00 4.40086985e+00 4.44923067e+00 4.47381210e+00 4.49866676e+00 4.52379894e+00 4.52379894e+00 4.54921341e+00 4.54921341e+00 4.54921341e+00 4.54921341e+00 4.54921341e+00 4.54921341e+00 4.54921341e+00 4.52379894e+00 4.52379894e+00 4.52379894e+00 4.49866676e+00 4.47381210e+00 4.42491817e+00 4.40086985e+00 4.35354853e+00 4.35354853e+00 4.35354853e+00 4.35354853e+00 4.42491817e+00 4.44923067e+00 4.47381210e+00 4.52379894e+00 4.52379894e+00 4.54921341e+00 4.54921341e+00 4.57491541e+00 4.57491541e+00 4.57491541e+00 4.57491541e+00 4.57491541e+00 4.57491541e+00 4.57491541e+00 4.57491541e+00 4.57491541e+00 4.60090923e+00 4.60090923e+00 4.60090923e+00 4.60090923e+00 4.60090923e+00 4.60090923e+00 4.57491541e+00 4.54921341e+00 4.52379894e+00 4.49866676e+00 4.52379894e+00 4.52379894e+00 4.52379894e+00 4.52379894e+00 4.52379894e+00 4.52379894e+00 4.52379894e+00 4.54921341e+00 4.54921341e+00 4.54921341e+00 4.54921341e+00 4.54921341e+00 4.54921341e+00 4.54921341e+00 4.54921341e+00 4.54921341e+00 4.52379894e+00 4.49866676e+00 4.49866676e+00 4.47381210e+00 4.47381210e+00 4.44923067e+00 4.40086985e+00 4.35354853e+00 4.33026743e+00 4.30723429e+00 4.28444433e+00 4.26189470e+00 4.21750021e+00 4.19564772e+00 4.19564772e+00 4.17402077e+00 4.17402077e+00 4.17402077e+00 4.15261555e+00 4.11045694e+00 4.08969688e+00 4.04879999e+00 4.04879999e+00 -1. -1. -1. -1. -1. -1. -1. -1. -1. -1. -1. -1. -1. -1. -1. -1. -1. -1. -1. -1. -1. -1. -1. -1. -1. -1. -1. -1. -1. -1. -1. -1. -1. -1. -1. -1. -1. -1. -1. -1. -1. -1. -1. -1. -1. -1. -1. -1. -1. -1. -1. 8.27975452e-01 8.23764026e-01 8.21257591e-01 8.19595158e-01 8.17939401e-01 8.16290319e-01 8.13829184e-01 8.11382771e-01 8.03333342e-01 8.03333342e-01 8.03333342e-01 8.03333342e-01 8.03333342e-01 8.03333342e-01 8.03333342e-01 8.03333342e-01 8.03333342e-01 8.03333342e-01 8.03333342e-01 8.03333342e-01 8.03333342e-01 8.03333342e-01 8.55079234e-01 8.56888890e-01 8.55079234e-01 8.33944380e-01 8.29672158e-01 8.28822911e-01 8.27975452e-01 8.27975452e-01 8.27129722e-01 8.25443447e-01 8.14647913e-01 8.13012064e-01 8.11382771e-01 8.03333342e-01 8.03333342e-01 8.03333342e-01 8.03333342e-01 -1. -1. -1. -1. -1. -1. -1. -1. -1. -1. -1. -1. -1. -1. -1. -1. -1. -1. -1. -1. -1. -1. -1. -1. -1. -1. -1. -1. -1.
    4.60090923e+00 4.60090923e+00 4.60090923e+00 4.60090923e+00 4.60090923e+00 4.60090923e+00 4.60090923e+00 4.60090923e+00 4.60090923e+00 4.60090923e+00 4.60090923e+00 4.54921341e+00 4.54921341e+00 4.47381210e+00 4.44923067e+00 4.40086985e+00 4.30723429e+00 4.28444433e+00 4.28444433e+00 4.28444433e+00 4.26189470e+00 4.26189470e+00 4.26189470e+00 4.30723429e+00 4.30723429e+00 4.28444433e+00 4.26189470e+00 4.21750021e+00 4.15261555e+00 4.11045694e+00 4.00871277e+00 3.95004892e+00 3.93087387e+00 3.91188407e+00 3.91188407e+00 3.93087387e+00 3.95004892e+00 3.96941185e+00 4.06914568e+00 4.13142872e+00 4.17402077e+00 4.19564772e+00 4.19564772e+00 4.23958111e+00 4.26189470e+00 4.30723429e+00 4.30723429e+00 4.28444433e+00 4.28444433e+00 4.28444433e+00 4.28444433e+00 4.40086985e+00 4.44923067e+00 4.47381210e+00 4.52379894e+00 4.54921341e+00 4.54921341e+00 4.54921341e+00 4.57491541e+00 4.57491541e+00 4.57491541e+00 4.57491541e+00 4.57491541e+00 4.57491541e+00 4.57491541e+00 4.57491541e+00 4.54921341e+00 4.54921341e+00 4.52379894e+00 4.49866676e+00 4.47381210e+00 4.44923067e+00 4.40086985e+00 4.40086985e+00 4.42491817e+00 4.42491817e+00 4.44923067e+00 4.49866676e+00 4.52379894e+00 4.54921341e+00 4.57491541e+00 4.57491541e+00 4.57491541e+00 4.57491541e+00 4.60090923e+00 4.60090923e+00 4.60090923e+00 4.60090923e+00 4.60090923e+00 4.60090923e+00 4.60090923e+00 4.60090923e+00 4.60090923e+00 4.60090923e+00 4.60090923e+00 4.60090923e+00 4.62720013e+00 4.62720013e+00 4.60090923e+00 4.57491541e+00 4.54921341e+00 4.52379894e+00 4.54921341e+00 4.54921341e+00 4.54921341e+00 4.52379894e+00 4.52379894e+00 4.54921341e+00 4.54921341e+00 4.54921341e+00 4.54921341e+00 4.54921341e+00 4.54921341e+00 4.54921341e+00 4.54921341e+00 4.54921341e+00 4.54921341e+00 4.54921341e+00 4.54921341e+00 4.52379894e+00 4.52379894e+00 4.52379894e+00 4.49866676e+00 4.49866676e+00 4.44923067e+00 4.42491817e+00 4.35354853e+00 4.33026743e+00 4.30723429e+00 4.26189470e+00 4.21750021e+00 4.19564772e+00 4.19564772e+00 4.17402077e+00 4.17402077e+00 4.17402077e+00 4.15261555e+00 4.11045694e+00 4.08969688e+00 4.04879999e+00 4.04879999e+00 -1. -1. -1. -1. -1. -1. -1. -1. -1. -1. -1. -1. -1. -1. -1. -1. -1. -1. -1. -1. -1. -1. -1. -1. -1. -1. -1. -1. -1. -1. -1. -1. -1. -1. -1. -1. -1. -1. -1. -1. -1. -1. -1. -1. -1. -1. -1. -1. -1. -1. 8.32230210e-01 8.28822911e-01 8.27975452e-01 8.24602842e-01 8.21257591e-01 8.19595158e-01 8.17939401e-01 8.16290319e-01 8.13829184e-01 8.11382771e-01 8.03333342e-01 8.03333342e-01 8.03333342e-01 8.03333342e-01 8.03333342e-01 8.03333342e-01 8.03333342e-01 8.03333342e-01 8.03333342e-01 8.03333342e-01 8.03333342e-01 8.03333342e-01 8.03333342e-01 8.55983078e-01 -1. -1. 8.30523074e-01 8.28822911e-01 8.27129722e-01 8.27129722e-01 8.27129722e-01 8.26285720e-01 8.25443447e-01 8.14647913e-01 8.13012064e-01 8.12196612e-01 8.03333342e-01 8.03333342e-01 8.03333342e-01 -1. -1. -1. -1. -1. -1. -1. -1. -1. -1. -1. -1. -1. -1. -1. -1. -1. -1. -1. -1. -1. -1. -1. -1. -1. -1. -1. -1. -1. -1.
    4.60090923e+00 4.60090923e+00 4.60090923e+00 4.60090923e+00 4.60090923e+00 4.60090923e+00 4.60090923e+00 4.60090923e+00 4.60090923e+00 4.60090923e+00 4.60090923e+00 4.57491541e+00 4.54921341e+00 4.49866676e+00 4.47381210e+00 4.44923067e+00 4.42491817e+00 4.30723429e+00 4.28444433e+00 4.28444433e+00 4.26189470e+00 4.26189470e+00 4.26189470e+00 4.28444433e+00 4.28444433e+00 4.28444433e+00 4.21750021e+00 4.21750021e+00 4.19564772e+00 4.15261555e+00 4.13142872e+00 4.00871277e+00 3.96941185e+00 3.96941185e+00 3.96941185e+00 4.00871277e+00 4.08969688e+00 4.19564772e+00 4.21750021e+00 4.23958111e+00 4.26189470e+00 4.26189470e+00 4.26189470e+00 4.28444433e+00 4.30723429e+00 4.33026743e+00 4.33026743e+00 4.33026743e+00 4.30723429e+00 4.30723429e+00 4.35354853e+00 4.44923067e+00 4.47381210e+00 4.52379894e+00 4.54921341e+00 4.57491541e+00 4.57491541e+00 4.57491541e+00 4.60090923e+00 4.60090923e+00 4.60090923e+00 4.60090923e+00 4.60090923e+00 4.60090923e+00 4.60090923e+00 4.57491541e+00 4.57491541e+00 4.57491541e+00 4.54921341e+00 4.52379894e+00 4.52379894e+00 4.47381210e+00 4.47381210e+00 4.44923067e+00 4.44923067e+00 4.47381210e+00 4.49866676e+00 4.52379894e+00 4.54921341e+00 4.60090923e+00 4.60090923e+00 4.60090923e+00 4.60090923e+00 4.60090923e+00 4.60090923e+00 4.60090923e+00 4.60090923e+00 4.60090923e+00 4.60090923e+00 4.60090923e+00 4.60090923e+00 4.60090923e+00 4.60090923e+00 4.60090923e+00 4.60090923e+00 4.60090923e+00 4.65379333e+00 4.68069363e+00 4.62720013e+00 4.60090923e+00 4.57491541e+00 4.54921341e+00 4.54921341e+00 4.54921341e+00 4.54921341e+00 4.54921341e+00 4.54921341e+00 4.54921341e+00 4.54921341e+00 4.57491541e+00 4.57491541e+00 4.57491541e+00 4.57491541e+00 4.57491541e+00 4.57491541e+00 4.57491541e+00 4.57491541e+00 4.57491541e+00 4.57491541e+00 4.54921341e+00 4.54921341e+00 4.54921341e+00 4.54921341e+00 4.52379894e+00 4.49866676e+00 4.47381210e+00 4.42491817e+00 4.35354853e+00 4.30723429e+00 4.26189470e+00 4.21750021e+00 4.21750021e+00 4.19564772e+00 4.17402077e+00 4.17402077e+00 4.17402077e+00 4.15261555e+00 4.11045694e+00 4.08969688e+00 4.08969688e+00 4.08969688e+00 -1. -1. -1. -1. -1. -1. -1. -1. -1. -1. -1. -1. -1. -1. -1. -1. -1. -1. -1. -1. -1. -1. -1. -1. -1. -1. -1. -1. -1. -1. -1. -1. -1. -1. -1. -1. -1. -1. -1. -1. -1. -1. -1. -1. -1. -1. -1. -1. 8.43500018e-01 8.38260889e-01 8.33086431e-01 8.31375778e-01 8.29672158e-01 8.27975452e-01 8.24602842e-01 8.21257591e-01 8.19595158e-01 8.17939401e-01 8.16290319e-01 8.13829184e-01 8.11382771e-01 8.03333342e-01 8.03333342e-01 8.03333342e-01 8.03333342e-01 8.03333342e-01 8.03333342e-01 8.03333342e-01 8.03333342e-01 8.03333342e-01 8.03333342e-01 8.03333342e-01 8.03333342e-01 8.03333342e-01 -1. -1. 8.29672158e-01 8.25443447e-01 8.24602842e-01 8.26285720e-01 8.26285720e-01 8.25443447e-01 8.23764026e-01 8.13829184e-01 8.13012064e-01 8.12196612e-01 8.03333342e-01 8.03333342e-01 8.03333342e-01 -1. -1. -1. -1. -1. -1. -1. -1. -1. -1. -1. -1. -1. -1. -1. -1. -1. -1. -1. -1. -1. -1. -1. -1. -1. -1. -1. -1. -1. -1.
    4.60090923e+00 4.60090923e+00 4.60090923e+00 4.60090923e+00 4.60090923e+00 4.60090923e+00 4.60090923e+00 4.60090923e+00 4.60090923e+00 4.60090923e+00 4.60090923e+00 4.57491541e+00 4.54921341e+00 4.52379894e+00 4.49866676e+00 4.49866676e+00 4.47381210e+00 4.42491817e+00 4.40086985e+00 4.35354853e+00 4.28444433e+00 4.30723429e+00 4.28444433e+00 4.30723429e+00 4.30723429e+00 4.28444433e+00 4.23958111e+00 4.21750021e+00 4.19564772e+00 4.15261555e+00 4.19564772e+00 4.13142872e+00 4.11045694e+00 4.08969688e+00 4.08969688e+00 4.15261555e+00 4.21750021e+00 4.26189470e+00 4.26189470e+00 4.28444433e+00 4.33026743e+00 4.33026743e+00 4.30723429e+00 4.30723429e+00 4.33026743e+00 4.35354853e+00 4.35354853e+00 4.35354853e+00 4.35354853e+00 4.35354853e+00 4.42491817e+00 4.47381210e+00 4.52379894e+00 4.54921341e+00 4.57491541e+00 4.60090923e+00 4.60090923e+00 4.60090923e+00 4.60090923e+00 4.60090923e+00 4.60090923e+00 4.60090923e+00 4.60090923e+00 4.60090923e+00 4.60090923e+00 4.60090923e+00 4.57491541e+00 4.57491541e+00 4.57491541e+00 4.54921341e+00 4.52379894e+00 4.52379894e+00 4.49866676e+00 4.49866676e+00 4.49866676e+00 4.49866676e+00 4.52379894e+00 4.54921341e+00 4.57491541e+00 4.60090923e+00 4.60090923e+00 4.60090923e+00 4.60090923e+00 4.60090923e+00 4.60090923e+00 4.60090923e+00 4.60090923e+00 4.60090923e+00 4.60090923e+00 4.60090923e+00 4.60090923e+00 4.60090923e+00 4.60090923e+00 4.60090923e+00 4.60090923e+00 4.60090923e+00 4.65379333e+00 4.68069363e+00 4.65379333e+00 4.60090923e+00 4.57491541e+00 4.57491541e+00 4.57491541e+00 4.57491541e+00 4.57491541e+00 4.57491541e+00 4.57491541e+00 4.57491541e+00 4.57491541e+00 4.57491541e+00 4.60090923e+00 4.60090923e+00 4.60090923e+00 4.57491541e+00 4.57491541e+00 4.57491541e+00 4.57491541e+00 4.57491541e+00 4.57491541e+00 4.57491541e+00 4.57491541e+00 4.57491541e+00 4.54921341e+00 4.54921341e+00 4.52379894e+00 4.49866676e+00 4.47381210e+00 4.42491817e+00 4.33026743e+00 4.26189470e+00 4.21750021e+00 4.21750021e+00 4.17402077e+00 4.17402077e+00 4.17402077e+00 4.17402077e+00 4.13142872e+00 4.11045694e+00 4.08969688e+00 4.08969688e+00 -1. -1. -1. -1. -1. -1. -1. -1. -1. -1. -1. -1. -1. -1. -1. -1. -1. -1. -1. -1. -1. -1. -1. -1. -1. -1. -1. -1. -1. -1. -1. -1. -1. -1. -1. -1. -1. -1. -1. -1. -1. -1. -1. -1. -1. -1. -1. 8.45260978e-01 8.44379544e-01 8.41746390e-01 8.38260889e-01 8.34804118e-01 8.33086431e-01 8.31375778e-01 8.29672158e-01 8.27129722e-01 8.24602842e-01 8.22091401e-01 8.19595158e-01 8.17939401e-01 8.16290319e-01 8.13829184e-01 8.11382771e-01 8.03333342e-01 8.03333342e-01 8.03333342e-01 8.03333342e-01 8.03333342e-01 8.03333342e-01 8.03333342e-01 8.03333342e-01 8.03333342e-01 8.03333342e-01 8.03333342e-01 8.03333342e-01 8.03333342e-01 -1. 8.25443447e-01 8.23764026e-01 8.14647913e-01 8.14647913e-01 8.25443447e-01 8.25443447e-01 8.23764026e-01 8.13012064e-01 8.12196612e-01 8.10570598e-01 8.03333342e-01 8.03333342e-01 8.03333342e-01 -1. -1. -1. -1. -1. -1. -1. -1. -1. -1. -1. -1. -1. -1. -1. -1. -1. -1. -1. -1. -1. -1. -1. -1. -1. -1. -1. -1. -1. -1.
    4.60090923e+00 4.60090923e+00 4.60090923e+00 4.62720013e+00 4.62720013e+00 4.62720013e+00 4.62720013e+00 4.62720013e+00 4.60090923e+00 4.60090923e+00 4.60090923e+00 4.60090923e+00 4.57491541e+00 4.54921341e+00 4.52379894e+00 4.52379894e+00 4.49866676e+00 4.47381210e+00 4.44923067e+00 4.42491817e+00 4.35354853e+00 4.35354853e+00 4.30723429e+00 4.30723429e+00 4.30723429e+00 4.28444433e+00 4.23958111e+00 4.21750021e+00 4.19564772e+00 4.15261555e+00 4.19564772e+00 4.19564772e+00 4.21750021e+00 4.21750021e+00 4.21750021e+00 4.21750021e+00 4.26189470e+00 4.26189470e+00 4.30723429e+00 4.33026743e+00 4.40086985e+00 4.42491817e+00 4.40086985e+00 4.40086985e+00 4.40086985e+00 4.42491817e+00 4.40086985e+00 4.40086985e+00 4.40086985e+00 4.42491817e+00 4.47381210e+00 4.49866676e+00 4.52379894e+00 4.57491541e+00 4.60090923e+00 4.60090923e+00 4.60090923e+00 4.60090923e+00 4.60090923e+00 4.60090923e+00 4.60090923e+00 4.60090923e+00 4.60090923e+00 4.60090923e+00 4.60090923e+00 4.60090923e+00 4.60090923e+00 4.57491541e+00 4.57491541e+00 4.54921341e+00 4.54921341e+00 4.52379894e+00 4.52379894e+00 4.52379894e+00 4.49866676e+00 4.52379894e+00 4.52379894e+00 4.54921341e+00 4.57491541e+00 4.60090923e+00 4.60090923e+00 4.60090923e+00 4.60090923e+00 4.60090923e+00 4.60090923e+00 4.60090923e+00 4.60090923e+00 4.60090923e+00 4.60090923e+00 4.60090923e+00 4.60090923e+00 4.60090923e+00 4.60090923e+00 4.60090923e+00 4.60090923e+00 4.60090923e+00 4.62720013e+00 4.65379333e+00 4.65379333e+00 4.60090923e+00 4.57491541e+00 4.57491541e+00 4.57491541e+00 4.57491541e+00 4.57491541e+00 4.57491541e+00 4.57491541e+00 4.57491541e+00 4.57491541e+00 4.60090923e+00 4.60090923e+00 4.60090923e+00 4.60090923e+00 4.60090923e+00 4.60090923e+00 4.60090923e+00 4.60090923e+00 4.60090923e+00 4.60090923e+00 4.57491541e+00 4.57491541e+00 4.57491541e+00 4.57491541e+00 4.54921341e+00 4.52379894e+00 4.52379894e+00 4.47381210e+00 4.44923067e+00 4.33026743e+00 4.26189470e+00 4.21750021e+00 4.17402077e+00 4.15261555e+00 4.15261555e+00 4.13142872e+00 4.13142872e+00 4.08969688e+00 4.08969688e+00 4.06914568e+00 4.08969688e+00 -1. -1. -1. -1. -1. -1. -1. -1. -1. -1. -1. -1. -1. -1. -1. -1. -1. -1. -1. -1. -1. -1. -1. -1. -1. -1. -1. -1. -1. -1. -1. -1. -1. -1. -1. -1. -1. -1. -1. -1. -1. -1. -1. -1. -1. -1. 8.47029328e-01 8.45260978e-01 8.44379544e-01 8.43500018e-01 8.40872288e-01 8.37393999e-01 8.34804118e-01 8.33086431e-01 8.31375778e-01 8.29672158e-01 8.27129722e-01 8.24602842e-01 8.22091401e-01 8.19595158e-01 8.17939401e-01 8.16290319e-01 8.13829184e-01 8.11382771e-01 8.03333342e-01 8.03333342e-01 8.03333342e-01 8.03333342e-01 8.03333342e-01 8.03333342e-01 8.03333342e-01 8.03333342e-01 8.03333342e-01 8.03333342e-01 8.03333342e-01 8.03333342e-01 8.03333342e-01 8.11382771e-01 8.11382771e-01 8.03333342e-01 8.03333342e-01 8.09760034e-01 8.25443447e-01 8.23764026e-01 8.13012064e-01 8.11382771e-01 8.10570598e-01 8.03333342e-01 8.03333342e-01 8.03333342e-01 -1. -1. -1. -1. -1. -1. -1. -1. -1. -1. -1. -1. -1. -1. -1. -1. -1. -1. -1. -1. -1. -1. -1. -1. -1. -1. -1. -1. -1. -1.
    4.62720013e+00 4.62720013e+00 4.62720013e+00 4.62720013e+00 4.62720013e+00 4.62720013e+00 4.62720013e+00 4.62720013e+00 4.62720013e+00 4.62720013e+00 4.60090923e+00 4.60090923e+00 4.57491541e+00 4.54921341e+00 4.52379894e+00 4.52379894e+00 4.49866676e+00 4.49866676e+00 4.47381210e+00 4.44923067e+00 4.42491817e+00 4.40086985e+00 4.30723429e+00 4.30723429e+00 4.30723429e+00 4.28444433e+00 4.23958111e+00 4.21750021e+00 4.19564772e+00 4.15261555e+00 4.19564772e+00 4.21750021e+00 4.21750021e+00 4.23958111e+00 4.23958111e+00 4.26189470e+00 4.26189470e+00 4.30723429e+00 4.33026743e+00 4.37708092e+00 4.42491817e+00 4.42491817e+00 4.42491817e+00 4.42491817e+00 4.42491817e+00 4.42491817e+00 4.42491817e+00 4.44923067e+00 4.44923067e+00 4.47381210e+00 4.49866676e+00 4.52379894e+00 4.54921341e+00 4.57491541e+00 4.60090923e+00 4.60090923e+00 4.60090923e+00 4.60090923e+00 4.60090923e+00 4.60090923e+00 4.60090923e+00 4.60090923e+00 4.60090923e+00 4.60090923e+00 4.60090923e+00 4.60090923e+00 4.60090923e+00 4.60090923e+00 4.57491541e+00 4.57491541e+00 4.54921341e+00 4.54921341e+00 4.52379894e+00 4.52379894e+00 4.52379894e+00 4.52379894e+00 4.54921341e+00 4.57491541e+00 4.60090923e+00 4.60090923e+00 4.60090923e+00 4.60090923e+00 4.60090923e+00 4.60090923e+00 4.60090923e+00 4.60090923e+00 4.60090923e+00 4.60090923e+00 4.60090923e+00 4.60090923e+00 4.60090923e+00 4.60090923e+00 4.60090923e+00 4.60090923e+00 4.60090923e+00 4.60090923e+00 4.62720013e+00 4.65379333e+00 4.62720013e+00 4.60090923e+00 4.57491541e+00 4.57491541e+00 4.60090923e+00 4.60090923e+00 4.60090923e+00 4.60090923e+00 4.60090923e+00 4.60090923e+00 4.60090923e+00 4.60090923e+00 4.60090923e+00 4.60090923e+00 4.60090923e+00 4.60090923e+00 4.60090923e+00 4.60090923e+00 4.60090923e+00 4.60090923e+00 4.60090923e+00 4.60090923e+00 4.60090923e+00 4.60090923e+00 4.57491541e+00 4.54921341e+00 4.54921341e+00 4.52379894e+00 4.49866676e+00 4.44923067e+00 4.37708092e+00 4.26189470e+00 4.21750021e+00 4.19564772e+00 4.15261555e+00 4.15261555e+00 4.13142872e+00 4.13142872e+00 4.11045694e+00 4.08969688e+00 4.06914568e+00 4.08969688e+00 -1. -1. -1. -1. -1. -1. -1. -1. -1. -1. -1. -1. -1. -1. -1. -1. -1. -1. -1. -1. -1. -1. -1. -1. -1. -1. -1. -1. -1. -1. -1. -1. -1. -1. -1. -1. -1. -1. -1. -1. -1. -1. -1. -1. -1. -1. 8.48805070e-01 8.46144199e-01 8.46144199e-01 8.44379544e-01 8.41746390e-01 8.39129567e-01 8.37393999e-01 8.34804118e-01 8.33086431e-01 8.31375778e-01 8.29672158e-01 8.27129722e-01 8.24602842e-01 8.22091401e-01 8.19595158e-01 8.17114055e-01 8.16290319e-01 8.13829184e-01 8.11382771e-01 8.03333342e-01 8.03333342e-01 8.03333342e-01 8.03333342e-01 8.03333342e-01 8.03333342e-01 8.03333342e-01 8.03333342e-01 8.03333342e-01 8.03333342e-01 8.03333342e-01 8.03333342e-01 8.11382771e-01 8.11382771e-01 8.03333342e-01 8.03333342e-01 8.10570598e-01 8.15468311e-01 8.15468311e-01 8.12196612e-01 8.12196612e-01 8.10570598e-01 8.03333342e-01 8.03333342e-01 8.03333342e-01 8.03333342e-01 -1. -1. -1. -1. -1. -1. -1. -1. -1. -1. -1. -1. -1. -1. -1. -1. -1. -1. -1. -1. -1. -1. -1. -1. -1. -1. -1. -1. -1.
    4.62720013e+00 4.62720013e+00 4.62720013e+00 4.62720013e+00 4.62720013e+00 4.62720013e+00 4.62720013e+00 4.62720013e+00 4.62720013e+00 4.62720013e+00 4.62720013e+00 4.60090923e+00 4.60090923e+00 4.54921341e+00 4.52379894e+00 4.52379894e+00 4.49866676e+00 4.49866676e+00 4.47381210e+00 4.47381210e+00 4.42491817e+00 4.42491817e+00 4.33026743e+00 4.28444433e+00 4.28444433e+00 4.28444433e+00 4.21750021e+00 4.21750021e+00 4.19564772e+00 4.17402077e+00 4.21750021e+00 4.21750021e+00 4.23958111e+00 4.23958111e+00 4.26189470e+00 4.26189470e+00 4.26189470e+00 4.28444433e+00 4.30723429e+00 4.35354853e+00 4.40086985e+00 4.42491817e+00 4.42491817e+00 4.42491817e+00 4.42491817e+00 4.44923067e+00 4.44923067e+00 4.47381210e+00 4.49866676e+00 4.49866676e+00 4.52379894e+00 4.54921341e+00 4.57491541e+00 4.60090923e+00 4.60090923e+00 4.60090923e+00 4.62720013e+00 4.62720013e+00 4.62720013e+00 4.62720013e+00 4.62720013e+00 4.62720013e+00 4.62720013e+00 4.62720013e+00 4.60090923e+00 4.60090923e+00 4.60090923e+00 4.60090923e+00 4.60090923e+00 4.57491541e+00 4.54921341e+00 4.54921341e+00 4.54921341e+00 4.54921341e+00 4.54921341e+00 4.54921341e+00 4.57491541e+00 4.60090923e+00 4.60090923e+00 4.60090923e+00 4.60090923e+00 4.60090923e+00 4.60090923e+00 4.60090923e+00 4.60090923e+00 4.60090923e+00 4.60090923e+00 4.60090923e+00 4.60090923e+00 4.60090923e+00 4.60090923e+00 4.60090923e+00 4.60090923e+00 4.60090923e+00 4.60090923e+00 4.60090923e+00 4.62720013e+00 4.65379333e+00 4.62720013e+00 4.60090923e+00 4.60090923e+00 4.60090923e+00 4.60090923e+00 4.60090923e+00 4.60090923e+00 4.60090923e+00 4.60090923e+00 4.60090923e+00 4.60090923e+00 4.60090923e+00 4.60090923e+00 4.60090923e+00 4.60090923e+00 4.60090923e+00 4.60090923e+00 4.60090923e+00 4.60090923e+00 4.60090923e+00 4.60090923e+00 4.60090923e+00 4.60090923e+00 4.60090923e+00 4.60090923e+00 4.57491541e+00 4.54921341e+00 4.54921341e+00 4.52379894e+00 4.47381210e+00 4.42491817e+00 4.33026743e+00 4.26189470e+00 4.21750021e+00 4.19564772e+00 4.15261555e+00 4.15261555e+00 4.15261555e+00 4.15261555e+00 4.13142872e+00 4.08969688e+00 -1. -1. -1. -1. -1. -1. -1. -1. -1. -1. -1. -1. -1. -1. -1. -1. -1. -1. -1. -1. -1. -1. -1. -1. -1. -1. -1. -1. -1. -1. -1. -1. -1. -1. -1. -1. -1. -1. -1. -1. -1. -1. -1. -1. -1. -1. -1. 8.52378964e-01 8.48805070e-01 8.47916245e-01 8.46144199e-01 8.43500018e-01 8.40872288e-01 8.38260889e-01 8.35665643e-01 8.33944380e-01 8.32230210e-01 8.30523074e-01 8.28822911e-01 8.26285720e-01 8.24602842e-01 8.22091401e-01 8.19595158e-01 8.17114055e-01 8.15468311e-01 8.12196612e-01 8.03333342e-01 8.03333342e-01 8.03333342e-01 8.03333342e-01 8.03333342e-01 8.03333342e-01 8.03333342e-01 8.03333342e-01 8.03333342e-01 8.03333342e-01 8.03333342e-01 8.11382771e-01 8.12196612e-01 8.13012064e-01 8.12196612e-01 8.10570598e-01 8.12196612e-01 8.15468311e-01 8.15468311e-01 8.13829184e-01 8.13012064e-01 8.12196612e-01 8.03333342e-01 8.03333342e-01 8.03333342e-01 8.03333342e-01 -1. -1. -1. -1. -1. -1. -1. -1. -1. -1. -1. -1. -1. -1. -1. -1. -1. -1. -1. -1. -1. -1. -1. -1. -1. -1. -1. -1. -1.
    4.65379333e+00 4.65379333e+00 4.65379333e+00 4.65379333e+00 4.65379333e+00 4.65379333e+00 4.65379333e+00 4.62720013e+00 4.62720013e+00 4.62720013e+00 4.62720013e+00 4.60090923e+00 4.60090923e+00 4.54921341e+00 4.52379894e+00 4.49866676e+00 4.47381210e+00 4.47381210e+00 4.47381210e+00 4.44923067e+00 4.42491817e+00 4.42491817e+00 4.33026743e+00 4.28444433e+00 4.26189470e+00 4.23958111e+00 4.21750021e+00 4.17402077e+00 4.17402077e+00 4.19564772e+00 4.21750021e+00 4.21750021e+00 4.23958111e+00 4.23958111e+00 4.26189470e+00 4.26189470e+00 4.26189470e+00 4.28444433e+00 4.28444433e+00 4.28444433e+00 4.35354853e+00 4.35354853e+00 4.35354853e+00 4.40086985e+00 4.42491817e+00 4.44923067e+00 4.47381210e+00 4.49866676e+00 4.49866676e+00 4.49866676e+00 4.52379894e+00 4.54921341e+00 4.57491541e+00 4.60090923e+00 4.60090923e+00 4.62720013e+00 4.62720013e+00 4.62720013e+00 4.62720013e+00 4.62720013e+00 4.62720013e+00 4.62720013e+00 4.62720013e+00 4.62720013e+00 4.62720013e+00 4.60090923e+00 4.60090923e+00 4.60090923e+00 4.60090923e+00 4.57491541e+00 4.57491541e+00 4.54921341e+00 4.54921341e+00 4.54921341e+00 4.54921341e+00 4.57491541e+00 4.60090923e+00 4.60090923e+00 4.60090923e+00 4.60090923e+00 4.60090923e+00 4.60090923e+00 4.60090923e+00 4.60090923e+00 4.60090923e+00 4.60090923e+00 4.60090923e+00 4.60090923e+00 4.60090923e+00 4.60090923e+00 4.60090923e+00 4.60090923e+00 4.60090923e+00 4.60090923e+00 4.60090923e+00 4.60090923e+00 4.65379333e+00 4.65379333e+00 4.65379333e+00 4.60090923e+00 4.60090923e+00 4.60090923e+00 4.62720013e+00 4.62720013e+00 4.62720013e+00 4.62720013e+00 4.60090923e+00 4.60090923e+00 4.60090923e+00 4.60090923e+00 4.60090923e+00 4.60090923e+00 4.60090923e+00 4.60090923e+00 4.60090923e+00 4.60090923e+00 4.60090923e+00 4.60090923e+00 4.60090923e+00 4.60090923e+00 4.60090923e+00 4.60090923e+00 4.60090923e+00 4.57491541e+00 4.54921341e+00 4.54921341e+00 4.52379894e+00 4.47381210e+00 4.42491817e+00 4.33026743e+00 4.30723429e+00 4.26189470e+00 4.21750021e+00 4.19564772e+00 4.19564772e+00 4.19564772e+00 -1. -1. -1. -1. -1. -1. -1. -1. -1. -1. -1. -1. -1. -1. -1. -1. -1. -1. -1. -1. -1. -1. -1. -1. -1. -1. -1. -1. -1. -1. -1. -1. -1. -1. -1. -1. -1. -1. -1. -1. -1. -1. -1. -1. -1. -1. -1. -1. -1. 8.55983078e-01 8.52378964e-01 8.52378964e-01 8.50588262e-01 8.47916245e-01 8.45260978e-01 8.43500018e-01 8.40872288e-01 8.38260889e-01 8.34804118e-01 8.33944380e-01 8.32230210e-01 8.30523074e-01 8.28822911e-01 8.26285720e-01 8.23764026e-01 8.22091401e-01 8.19595158e-01 8.16290319e-01 8.13012064e-01 8.09760034e-01 8.03333342e-01 8.03333342e-01 8.03333342e-01 8.03333342e-01 8.03333342e-01 8.03333342e-01 8.03333342e-01 8.03333342e-01 8.03333342e-01 8.03333342e-01 8.13012064e-01 8.13829184e-01 8.13829184e-01 8.13829184e-01 8.12196612e-01 8.15468311e-01 8.15468311e-01 8.15468311e-01 8.14647913e-01 8.13829184e-01 8.13829184e-01 8.03333342e-01 8.03333342e-01 8.03333342e-01 8.03333342e-01 -1. -1. -1. -1. -1. -1. -1. -1. -1. -1. -1. -1. -1. -1. -1. -1. -1. -1. -1. -1. -1. -1. -1. -1. -1. -1. -1. -1. -1.
    4.65379333e+00 4.65379333e+00 4.65379333e+00 4.65379333e+00 4.65379333e+00 4.65379333e+00 4.65379333e+00 4.65379333e+00 4.65379333e+00 4.62720013e+00 4.62720013e+00 4.60090923e+00 4.57491541e+00 4.52379894e+00 4.49866676e+00 4.47381210e+00 4.47381210e+00 4.42491817e+00 4.44923067e+00 4.44923067e+00 4.42491817e+00 4.42491817e+00 4.33026743e+00 4.26189470e+00 4.26189470e+00 4.23958111e+00 4.21750021e+00 4.17402077e+00 4.17402077e+00 4.19564772e+00 4.21750021e+00 4.21750021e+00 4.21750021e+00 4.23958111e+00 4.23958111e+00 4.26189470e+00 4.26189470e+00 4.26189470e+00 4.26189470e+00 4.26189470e+00 4.26189470e+00 4.26189470e+00 4.30723429e+00 4.33026743e+00 4.42491817e+00 4.44923067e+00 4.47381210e+00 4.49866676e+00 4.47381210e+00 4.47381210e+00 4.49866676e+00 4.54921341e+00 4.57491541e+00 4.60090923e+00 4.62720013e+00 4.62720013e+00 4.62720013e+00 4.62720013e+00 4.62720013e+00 4.62720013e+00 4.62720013e+00 4.62720013e+00 4.62720013e+00 4.62720013e+00 4.62720013e+00 4.62720013e+00 4.60090923e+00 4.60090923e+00 4.60090923e+00 4.60090923e+00 4.57491541e+00 4.54921341e+00 4.54921341e+00 4.54921341e+00 4.57491541e+00 4.60090923e+00 4.60090923e+00 4.60090923e+00 4.60090923e+00 4.60090923e+00 4.60090923e+00 4.60090923e+00 4.60090923e+00 4.60090923e+00 4.60090923e+00 4.60090923e+00 4.60090923e+00 4.60090923e+00 4.60090923e+00 4.60090923e+00 4.60090923e+00 4.60090923e+00 4.60090923e+00 4.60090923e+00 4.60090923e+00 4.60090923e+00 4.65379333e+00 4.68069363e+00 4.68069363e+00 4.62720013e+00 4.62720013e+00 4.62720013e+00 4.65379333e+00 4.62720013e+00 4.62720013e+00 4.62720013e+00 4.62720013e+00 4.62720013e+00 4.60090923e+00 4.60090923e+00 4.60090923e+00 4.60090923e+00 4.60090923e+00 4.60090923e+00 4.60090923e+00 4.60090923e+00 4.60090923e+00 4.60090923e+00 4.60090923e+00 4.60090923e+00 4.60090923e+00 4.60090923e+00 4.60090923e+00 4.57491541e+00 4.57491541e+00 4.54921341e+00 4.54921341e+00 4.49866676e+00 4.44923067e+00 4.37708092e+00 4.33026743e+00 4.30723429e+00 4.28444433e+00 4.23958111e+00 4.23958111e+00 -1. -1. -1. -1. -1. -1. -1. -1. -1. -1. -1. -1. -1. -1. -1. -1. -1. -1. -1. -1. -1. -1. -1. -1. -1. -1. -1. -1. -1. -1. -1. -1. -1. -1. -1. -1. -1. -1. -1. -1. -1. -1. -1. -1. -1. -1. -1. -1. -1. 8.59617829e-01 8.55983078e-01 8.55079234e-01 8.54177237e-01 8.52378964e-01 8.50588262e-01 8.47029328e-01 8.45260978e-01 8.43500018e-01 8.40000033e-01 8.37393999e-01 8.34804118e-01 8.33944380e-01 8.32230210e-01 8.29672158e-01 8.27975452e-01 8.25443447e-01 8.23764026e-01 8.20425570e-01 8.17939401e-01 8.14647913e-01 8.11382771e-01 8.03333342e-01 8.03333342e-01 8.03333342e-01 8.03333342e-01 8.03333342e-01 8.03333342e-01 8.03333342e-01 8.03333342e-01 8.03333342e-01 8.13012064e-01 8.16290319e-01 8.16290319e-01 8.17114055e-01 8.16290319e-01 8.16290319e-01 8.16290319e-01 8.16290319e-01 8.16290319e-01 8.15468311e-01 8.15468311e-01 8.13829184e-01 8.12196612e-01 8.03333342e-01 8.03333342e-01 8.03333342e-01 -1. -1. -1. -1. -1. -1. -1. -1. -1. -1. -1. -1. -1. -1. -1. -1. -1. -1. -1. -1. -1. -1. -1. -1. -1. -1. -1. -1. -1.
    4.65379333e+00 4.65379333e+00 4.65379333e+00 4.65379333e+00 4.68069363e+00 4.68069363e+00 4.65379333e+00 4.65379333e+00 4.65379333e+00 4.65379333e+00 4.62720013e+00 4.62720013e+00 4.60090923e+00 4.54921341e+00 4.52379894e+00 4.47381210e+00 4.47381210e+00 4.42491817e+00 4.44923067e+00 4.44923067e+00 4.44923067e+00 4.42491817e+00 4.37708092e+00 4.33026743e+00 4.26189470e+00 4.23958111e+00 4.21750021e+00 4.19564772e+00 4.19564772e+00 4.21750021e+00 4.21750021e+00 4.21750021e+00 4.23958111e+00 4.23958111e+00 4.23958111e+00 4.26189470e+00 4.26189470e+00 4.26189470e+00 4.26189470e+00 4.26189470e+00 4.26189470e+00 4.26189470e+00 4.28444433e+00 4.33026743e+00 4.44923067e+00 4.49866676e+00 4.49866676e+00 4.49866676e+00 4.47381210e+00 4.47381210e+00 4.49866676e+00 4.54921341e+00 4.60090923e+00 4.62720013e+00 4.62720013e+00 4.65379333e+00 4.65379333e+00 4.65379333e+00 4.65379333e+00 4.65379333e+00 4.65379333e+00 4.65379333e+00 4.65379333e+00 4.62720013e+00 4.62720013e+00 4.62720013e+00 4.60090923e+00 4.60090923e+00 4.60090923e+00 4.60090923e+00 4.57491541e+00 4.54921341e+00 4.54921341e+00 4.54921341e+00 4.60090923e+00 4.60090923e+00 4.60090923e+00 4.60090923e+00 4.60090923e+00 4.60090923e+00 4.60090923e+00 4.60090923e+00 4.60090923e+00 4.60090923e+00 4.60090923e+00 4.60090923e+00 4.60090923e+00 4.60090923e+00 4.60090923e+00 4.60090923e+00 4.60090923e+00 4.60090923e+00 4.60090923e+00 4.60090923e+00 4.60090923e+00 4.60090923e+00 4.65379333e+00 4.68069363e+00 4.68069363e+00 4.65379333e+00 4.62720013e+00 4.65379333e+00 4.65379333e+00 4.65379333e+00 4.65379333e+00 4.62720013e+00 4.62720013e+00 4.62720013e+00 4.62720013e+00 4.62720013e+00 4.62720013e+00 4.62720013e+00 4.60090923e+00 4.60090923e+00 4.60090923e+00 4.60090923e+00 4.60090923e+00 4.60090923e+00 4.60090923e+00 4.60090923e+00 4.60090923e+00 4.60090923e+00 4.60090923e+00 4.60090923e+00 4.57491541e+00 4.57491541e+00 4.54921341e+00 4.52379894e+00 4.47381210e+00 4.40086985e+00 4.35354853e+00 4.33026743e+00 4.30723429e+00 4.33026743e+00 -1. -1. -1. -1. -1. -1. -1. -1. -1. -1. -1. -1. -1. -1. -1. -1. -1. -1. -1. -1. -1. -1. -1. -1. -1. -1. -1. -1. -1. -1. -1. -1. -1. -1. -1. -1. -1. -1. -1. -1. -1. -1. -1. -1. -1. -1. -1. -1. -1. 8.64204943e-01 8.60531390e-01 8.57796609e-01 8.57796609e-01 8.56888890e-01 8.54177237e-01 8.52378964e-01 8.48805070e-01 8.47029328e-01 8.44379544e-01 8.42622280e-01 8.40000033e-01 8.37393999e-01 8.34804118e-01 8.33944380e-01 8.32230210e-01 8.29672158e-01 8.27975452e-01 8.24602842e-01 8.21257591e-01 8.19595158e-01 8.16290319e-01 8.13012064e-01 8.10570598e-01 8.03333342e-01 8.03333342e-01 8.03333342e-01 8.03333342e-01 8.03333342e-01 8.03333342e-01 8.03333342e-01 8.13012064e-01 8.16290319e-01 8.16290319e-01 8.17114055e-01 8.17114055e-01 8.17114055e-01 8.16290319e-01 8.16290319e-01 8.18766415e-01 8.18766415e-01 8.15468311e-01 8.15468311e-01 8.15468311e-01 8.13012064e-01 8.03333342e-01 8.03333342e-01 8.03333342e-01 -1. -1. -1. -1. -1. -1. -1. -1. -1. -1. -1. -1. -1. -1. -1. -1. -1. -1. -1. -1. -1. -1. -1. -1. -1. -1. -1. -1. 1.02501268e+01</data></depth>
</opencv_storage>
